1.463276952296965749e-02,9.299926412209025273e-01,2.450492936327763327e-01
4.581781160034142930e-01,8.907279454370777838e-01,1.626564307257431785e-01
3.193203290765258551e-01,8.202772546631065254e-01,1.909847058542465947e-01
3.325048929782181695e-01,9.628212265182459761e-01,1.758986225790448166e-01
4.604104344491758427e-01,6.870815959407498008e-01,2.186628839516805145e-01
6.674312431938712598e-01,8.811795041642129789e-01,1.818023568321453232e-01
9.248690112909035976e-01,7.525894519996787491e-01,2.007244979367794335e-01
5.978760950065410418e-01,1.476477195121199681e-01,1.755095012841749180e-01
8.371598381329881100e-02,4.204181425944507611e-01,1.620529899532470453e-01
3.919927084009157126e-01,4.580799913365884990e-02,1.626793686616864743e-01
6.290845648646603561e-02,6.185717179835649171e-01,1.660798283635120387e-01
8.604393994046233285e-02,8.269461821945123248e-01,2.199278348968562447e-01
2.492401465132523253e-01,1.665118241345040495e-01,2.001195581275548308e-01
4.539887852477427765e-01,3.157106946990141383e-01,2.192295610051037957e-01
9.877799264600460871e-01,2.017141907112952603e-01,2.148937821210084032e-01
4.488544365823120552e-01,2.627427165609415027e-01,2.037942503285899987e-01
3.575469148726184709e-02,6.493138371640095885e-01,1.711795026007981169e-01
6.222746773743349502e-01,8.528658014815635457e-01,1.783455372232508329e-01
8.140456703595804200e-01,9.167440167973994747e-03,2.195494099715272485e-01
6.586021727129517389e-01,8.546374953881679115e-01,1.834017079400868666e-01
4.998835991708825421e-01,1.338539058604060195e-02,1.501767415178504317e-01
2.137924012064824630e-01,2.328732826572094128e-01,2.012111903144285785e-01
1.522313127132082222e-01,1.456696218803188447e-02,2.286986542316203630e-01
2.890025934670116259e-01,3.350283156350060132e-01,2.061769127170597071e-01
7.735488382017263742e-02,7.790897768145681468e-01,2.080355574013051934e-01
9.951015571201980991e-01,6.791822922926998851e-01,1.784890683970416503e-01
5.432295194445080355e-01,7.375286077752509772e-01,2.037704992579058294e-01
6.009706460209667256e-01,9.669386169549207821e-01,1.605949049274185136e-01
2.762693015795254503e-01,6.776949650553655280e-01,2.036052024443420760e-01
8.450344210964099156e-01,9.699739108714847680e-01,2.276142876414150029e-01
7.288366001195500932e-02,6.338447254671391029e-01,1.700979274196563473e-01
6.056557793277317359e-01,8.038343809755108538e-01,1.869318366720443825e-01
4.870444538033743553e-01,7.733400553445904935e-01,1.927179527632743306e-01
4.053402873640564730e-01,9.362640006618072608e-01,1.618626633730794184e-01
1.183771265435646924e-01,1.274621094632985008e-01,2.256127775589101825e-01
2.265244279914276904e-01,2.592488867401711028e-01,1.995732092724248619e-01
5.966948110242790149e-01,2.401100721459031861e-01,1.974506342073789611e-01
4.964846933735502787e-01,7.703440850342584412e-01,1.936276626179938287e-01
8.401734393011049962e-01,3.546383279145012279e-01,1.835994428975710191e-01
2.318797437864839051e-02,8.198053228159484229e-01,2.210086469023946898e-01
9.968813602690237419e-01,7.414442761915650548e-01,1.973139502411898893e-01
8.151404670429249766e-01,9.951009385701778953e-01,2.198884603916655966e-01
6.129591974793030529e-01,9.574068142161495931e-01,1.634236271097588566e-01
7.577328724485445921e-01,8.821788550994237310e-01,2.017928170802248955e-01
5.717090133993638634e-01,3.632826634062974458e-01,2.293997082369471641e-01
6.444109108236437677e-01,8.617730608786099422e-01,1.801097530539087777e-01
1.703595513806566153e-02,4.085258982468759070e-01,1.582737411854298060e-01
1.899251554245673379e-01,9.578104651057255392e-01,2.177844003897769776e-01
9.428285427313053413e-01,8.923702390206756929e-01,2.365069699267091374e-01
7.544617953742233096e-01,8.826263667663679646e-01,2.010373643276620603e-01
2.962524307417360170e-01,8.911183151468433650e-01,1.888969920240629041e-01
2.650789429301350086e-01,1.404087112010500293e-01,1.969942864875274813e-01
2.469506328659145655e-01,1.596820287393990734e-01,2.005148985305605924e-01
5.814430132303161081e-01,5.988750054648883658e-02,1.594549303169682242e-01
4.755769859587084536e-01,7.885465973539240725e-01,1.881491880682499840e-01
4.638096399953639537e-01,9.667759089519794014e-01,1.523446565076357340e-01
3.089704224493727835e-03,3.268472860193465390e-01,1.767893015216538133e-01
5.854384758666582034e-01,8.006050197076763908e-02,1.623557627333958586e-01
5.796200899620985725e-01,1.227779263005085442e-01,1.685472191450408941e-01
9.255855331699411881e-01,7.551253922469597368e-01,2.014371205669917009e-01
9.979970939612922143e-01,4.442901915491938025e-01,1.530356844965948260e-01
1.314648416979071754e-01,6.591398487284192420e-01,1.816862105916759451e-01
1.476107702256024279e-02,7.609547926677979746e-01,2.034240530545289860e-01
4.570025425447979961e-01,2.467317210642661074e-02,1.523914783060484612e-01
8.315274384714109734e-01,2.880735246329479970e-03,2.245030571949016007e-01
4.592801369065174777e-01,5.685137515313873902e-01,2.439590970520196245e-01
4.118765183752879366e-01,3.125851198546308884e-01,2.162962850948912941e-01
8.826657696405320053e-01,9.938374260891473799e-01,2.369888381483133410e-01
6.972206260454227866e-02,7.673782634416120851e-01,2.049341752566532227e-01
5.556670226754689690e-02,4.364408825912190482e-01,1.567135767224617782e-01
5.603360557951535537e-01,3.865447565228513627e-01,2.351390523520237585e-01
5.816122735782673914e-01,4.342709477293622555e-01,2.399060396112156768e-01
6.737053511939361528e-02,4.078960964086677521e-01,1.618359741094682336e-01
4.256745734362006317e-01,6.330233633988013864e-02,1.588390026552894407e-01
3.751179044339425506e-02,9.426376973861253505e-01,2.454939240457505722e-01
2.500586932568993337e-01,2.005666836903922112e-01,1.999943645026409089e-01
3.038712878545697382e-01,5.741421836266136225e-02,1.844658107098725852e-01
1.168370152697794095e-01,5.386595341241952051e-01,1.639683499538538147e-01
4.172776274741072378e-01,7.260854271212854316e-01,2.064962978467947685e-01
3.463059477772660877e-01,2.729727482792716486e-01,2.040912144293574315e-01
3.980381031092528055e-01,9.370891749515707358e-01,1.630055425934314739e-01
4.694122346173518201e-01,2.789473638208743722e-01,2.088775116518675201e-01
1.893854022614840371e-01,6.752002710659410489e-02,2.169380257301093962e-01
2.129438628099092901e-01,9.130501888205810879e-02,2.096896864317808473e-01
3.519065743455056516e-01,7.515194361864896422e-02,1.733970638758502991e-01
4.465427722871945226e-01,4.044803068681501745e-02,1.543102885021376547e-01
7.480278885219312501e-01,9.582704522072070796e-01,1.994016325166446668e-01
2.815105036627574275e-01,8.374575259640260061e-02,1.914956102768286261e-01
6.228740334591983396e-01,2.267909746218907951e-01,1.947943391451417983e-01
9.682128252664164991e-01,1.911554908439730971e-01,2.177090549352092008e-01
8.869465391169616408e-01,8.616333634986639289e-01,2.244613997395443483e-01
6.162841450764811047e-01,9.560648433576623972e-01,1.641723130872108638e-01
4.352827081454146985e-01,1.735673716756293006e-01,1.787839560893125790e-01
4.963871964525889968e-01,1.074075375500563867e-01,1.609703820802850238e-01
9.813034064895198583e-01,8.374097985008505107e-01,2.259208716628519908e-01
1.975046233356583247e-01,2.265394992094776905e-01,2.023785412353309998e-01
5.845225657215138426e-01,9.744757913379450409e-01,1.574399818060915890e-01
3.650056020643724919e-01,1.883750070593922521e-01,1.875139883777210137e-01
2.182547404315255957e-01,9.115490398048214926e-01,2.084160851914365342e-01
8.158549370415979496e-02,8.685066317248224532e-01,2.295285613124054269e-01
5.036980602678575725e-02,9.563445984142903145e-01,2.457404478321187358e-01
7.528206211627985756e-02,4.833623732692993169e-02,2.424730199793257435e-01
8.750741344658605758e-01,9.656320108107707689e-01,2.345503049636584736e-01
3.325427743877737985e-01,3.625639824227964159e-01,2.161038886464514697e-01
1.930193392683148268e-01,8.048894844559595363e-02,2.153277880152444368e-01
2.321320834711196879e-01,6.587703497118032603e-01,1.969620681741252877e-01
3.775219995449853316e-01,7.822818487186601333e-01,1.927658871905184590e-01
2.839626349608640465e-01,1.325978180264663076e-01,1.928783638004223644e-01
6.494753892032216758e-01,9.486503628436594449e-01,1.720008643450325891e-01
3.643749405872322988e-01,3.374140937536649343e-01,2.171844767893168771e-01
5.005963850771233403e-03,9.497513229627564391e-01,2.475051175903550948e-01
6.912407882119614433e-01,1.996329876341295106e-01,1.943847755658384968e-01
2.015027859052053172e-01,6.749873611614188862e-01,1.931885542740552630e-01
7.104338807197490002e-01,9.229375510465583909e-01,1.891117561523840973e-01
1.349884317931655531e-01,2.912284070584982842e-01,1.915292778725997958e-01
2.914127666705691455e-01,3.617681209606373738e-01,2.083093574290159622e-01
2.594580922033112858e-01,3.862881546882546147e-02,1.971174409811954908e-01
9.787832685296593560e-01,8.148483542534801227e-01,2.196378671672591376e-01
2.831474399269778841e-01,6.729658617539957532e-01,2.048109057444856829e-01
1.913133226560229661e-01,5.657093186479023039e-02,2.168954590614264599e-01
9.926311853741136559e-01,6.831106638763696504e-01,1.796211440608286580e-01
8.442921710045014905e-03,8.513525510170489863e-01,2.296901367302361385e-01
8.373004104494449207e-01,2.753480296499608571e-01,1.958652278623294885e-01
9.261747507398320201e-01,2.214671704360384741e-01,2.079737971617965087e-01
2.676783636047661563e-01,4.995875575924303424e-01,2.055423896707418985e-01
3.705693713528828148e-01,5.127257036044130523e-01,2.342477589529463056e-01
4.699870635633934812e-01,6.534885774554647364e-01,2.279904464284087384e-01
3.689073244483531688e-01,1.073937565082921930e-01,1.734696759137983879e-01
4.443761529262698629e-01,6.701946733078933960e-02,1.571265721116845149e-01
9.294774352093830849e-01,1.910670575850339503e-01,2.163466755803995500e-01
2.809665291062923842e-02,3.105168131780158269e-01,1.817313264611615242e-01
3.089715328840427766e-01,9.946150535165727558e-01,1.819049300519401668e-01
3.988350061319779760e-01,9.904123744900029669e-01,1.598383405202809526e-01
8.546877967723093272e-01,3.135566176963389129e-02,2.299764768428877448e-01
9.325208437457471744e-01,7.648289428997165906e-01,2.042400187702345937e-01
9.792171049057644128e-01,4.740353317605618955e-01,1.510839375983396293e-01
7.819136294884632132e-02,2.900198862269631750e-01,1.890308646965944417e-01
3.127467776589893944e-01,4.994566246191397552e-01,2.192056627139958580e-01
3.991603766600929637e-01,7.446696515067300348e-01,2.013492986042149935e-01
5.293289619361916110e-01,2.783227143017541483e-01,2.087010943081769598e-01
2.509205360189864509e-01,9.457736874665301219e-02,1.997603830286411031e-01
2.602836387279580110e-01,1.504594615313606942e-01,1.981099110970536703e-01
7.170813284171957402e-01,1.835154975663165766e-01,1.958343160596135446e-01
5.172504744580221914e-01,1.785575895387775391e-01,1.784292253343696677e-01
6.555521155935988276e-01,1.236950037679285241e-01,1.800674645271585494e-01
5.429733159809377874e-01,5.186387949198654201e-01,2.478583464122489366e-01
2.380518482623483756e-02,5.759019520169685880e-01,1.560749947523058234e-01
2.940829522069393631e-01,8.534103166055367895e-01,1.917282516454166807e-01
9.014254777671041330e-01,9.925717084439298343e-01,2.406681139185952167e-01
3.421657193384440854e-01,7.865409508291792973e-01,1.937726102775870485e-01
9.953467612595388037e-01,4.338901597452363701e-01,1.542714071224797756e-01
5.845140953100661507e-01,2.599019956161452427e-02,1.574589919999359322e-01
7.039360535081639059e-01,2.484250742316244098e-01,1.998587906416582627e-01
5.020652358136380444e-01,7.763965515212822854e-01,1.917459404157398628e-01
5.941696615205280807e-01,2.485316151233692983e-01,1.996171200336183671e-01
6.911611526355565527e-02,8.916725007805648140e-02,2.384244174371059066e-01
3.558403698749786903e-01,8.727793672232568856e-01,1.784897723698434802e-01
4.403932487044210919e-01,9.670694281400358250e-01,1.544583836140588640e-01
1.180297946379161855e-01,9.968708451083850841e-01,2.368622081048491201e-01
9.997560075413342018e-01,7.746489422081264120e-01,2.077127650200862319e-01
2.880283663493331536e-01,3.542868563589302022e-01,2.072109320612058880e-01
8.464056103913741858e-01,2.512021466631045863e-01,1.997849721808671319e-01
5.386131174968032953e-01,8.784053414699254381e-01,1.649536863011238363e-01
3.444041543483644663e-02,7.287516972849475971e-01,1.934996839170503302e-01
6.878820674721431994e-01,3.324621550887811861e-01,2.094212913912110452e-01
3.630865938772716017e-01,6.981969353960671976e-01,2.104284860871364349e-01
5.484506853866416565e-01,7.761902255377449711e-01,1.921857994144255677e-01
2.919880606240864429e-01,6.816403897690409552e-01,2.054296152927008179e-01
4.973415491433917923e-01,7.595735635364234684e-01,1.969946090551058238e-01
5.807299351281538513e-01,3.801904448962518668e-01,2.318949130845083251e-01
4.421152334325300082e-01,9.742977283555008805e-01,1.538786830658953053e-01
1.112909716016345918e-01,8.029148533901964147e-02,2.334988250980292168e-01
4.291685719054634252e-01,8.054995539646990776e-01,1.845797173994072615e-01
5.840907674904893820e-02,9.797126243082606711e-01,2.462918404663860805e-01
2.757577406670161935e-01,2.046399790734031443e-01,1.977347416515080336e-01
4.325946911728784094e-02,8.071008938791829346e-01,2.169118547586432744e-01
9.977309730658477926e-01,6.325419898978574818e-01,1.663625511126348988e-01
7.668419812174865902e-01,1.775873518602583134e-01,2.023208011766387260e-01
9.381965204251864199e-01,4.963341776588074961e-01,1.537350028419702530e-01
5.401983478734777577e-01,3.646649026798663984e-01,2.319399713012434694e-01
5.375044617840328831e-01,8.590620047830269668e-01,1.692309295506378153e-01
2.966413856708752794e-01,1.576911168572151523e-01,1.920844244047995864e-01
9.908226714353477460e-01,5.882856510579912435e-01,1.575681145293444940e-01
1.753352901495491833e-01,6.934594041829106326e-01,1.921370983451413661e-01
3.425215545186393040e-01,2.452157752780736999e-03,1.725464585154529717e-01
9.456387486326176539e-01,4.451505318597079874e-01,1.556584959931072432e-01
5.350345561162478392e-01,6.025847351617287240e-01,2.390037851705812399e-01
8.648457080446436684e-01,1.617474254374526854e-01,2.173906916927667299e-01
4.703375009985044652e-01,1.440418847454750795e-01,1.696521798921367952e-01
7.117319453780348582e-01,3.640597144509719607e-01,2.078211753235407744e-01
4.435270485551022768e-01,1.002716445680593704e-01,1.621161051908168726e-01
1.781729317393810907e-01,1.060703092301630290e-01,2.171405691488288714e-01
3.188334756419870519e-01,8.980862518965532226e-01,1.831949331338739162e-01
8.627704375365701228e-01,1.498051722912394634e-01,2.191569538163603836e-01
3.688238679500546180e-01,8.870608455889853472e-01,1.742397877449682053e-01
8.035856559994555282e-01,8.372154424774034265e-01,2.086055260465798922e-01
9.134247535045311173e-01,3.309908462491961689e-02,2.418612176413628134e-01
1.484466010991418727e-01,9.241845874820654450e-01,2.264669305200887051e-01
1.832448023509447577e-01,1.983147463687647827e-01,2.064969789008005707e-01
4.798095192689332267e-01,2.478594538989802309e-01,1.993329517156804953e-01
1.386853526028906103e-01,6.254612505147651991e-01,1.773054669473875522e-01
2.716414853928947881e-01,9.500770729422141070e-01,1.935527817019040142e-01
9.432324097163712340e-01,3.150072027219723569e-01,1.813904687383074699e-01
9.786837466308184741e-02,7.340470294236633997e-01,1.959131515588487804e-01
2.048904971211953363e-01,6.054804351360434378e-01,1.889775088076685872e-01
2.282856745666600462e-01,2.370510048146942106e-01,2.005526939384004448e-01
8.527504157336384116e-01,8.634160264459844747e-01,2.196692605429420020e-01
7.644799071323449269e-02,5.744223318085197594e-01,1.604182133839341939e-01
9.720715168678200069e-01,1.445365483271067175e-01,2.302878782521864953e-01
4.524454353564737463e-01,6.312553675121262975e-01,2.324350437849275197e-01
5.448979076484629092e-01,5.018455023707866225e-01,2.480203939974417182e-01
4.935252394111714347e-01,1.032283294837663679e-01,1.601865373642982204e-01
7.699496679193134074e-01,3.319808777362068808e-01,1.969206278877553840e-01
4.630666301724103429e-01,7.400947027729462002e-01,2.030264729413968627e-01
2.828308051090625552e-01,5.434590671247642168e-01,2.098616740429077587e-01
7.076251518960396947e-02,6.505968102743852066e-01,1.736051810949071350e-01
6.336156941082934368e-01,8.872384837997938645e-01,1.746452887219486771e-01
9.196971247225049773e-02,6.447939268364339949e-01,1.742876446977987825e-01
9.441392325723128032e-01,7.082894932510618302e-01,1.878355009299882972e-01
3.473702019466643476e-01,4.652194490386089010e-01,2.280339063638571473e-01
4.231809302465490141e-01,9.568995763794830856e-01,1.573260953424187036e-01
4.627600711663761857e-01,9.618787384593757706e-01,1.527510349901448627e-01
8.456007951502086950e-01,9.637817225972382662e-01,2.275314851990760112e-01
6.806790954276642491e-02,8.879483875348226363e-02,2.385974215045109370e-01
8.241460853082195337e-01,3.206280625116187943e-01,1.903568003589320989e-01
4.049651112894324667e-01,2.683853184603665065e-01,2.047658217913540246e-01
5.080405807709953425e-02,5.757760419458456402e-01,1.578058072145730739e-01
3.439288959854484018e-01,6.102093243612207729e-01,2.214163577779398873e-01
2.637448661884714829e-01,5.181991269212647966e-01,2.042845465836178043e-01
3.500674896162817573e-01,8.212875645062660546e-01,1.872645137065212517e-01
4.502341292933949024e-01,6.118291944151426076e-01,2.363066031488060270e-01
9.815847173545990678e-01,6.785901390950388468e-02,2.452192382924857639e-01
5.107457270562858476e-01,2.557168992645588723e-01,2.017915394482186486e-01
7.061799224983417167e-01,9.411079417530424651e-01,1.873268245734203974e-01
7.144104536457093202e-01,8.671229788725585141e-01,1.925571944252980894e-01
9.505622832339610806e-01,9.503298992617358332e-01,2.453074543929909535e-01
7.023706534403983959e-03,2.207464670988745770e-01,2.091297101955526261e-01
5.173606773317391827e-01,8.494655137938458278e-01,1.709206107251058093e-01
9.872375483162943999e-01,3.314295546099692569e-01,1.755984020360694120e-01
2.650210233384319158e-01,2.551612307143358294e-02,1.953484363028470117e-01
7.219991773083263009e-01,9.980289222944369598e-01,1.912492637191152423e-01
9.930636933048027082e-01,7.025742478770776733e-01,1.853342189586765498e-01
9.285734790910472602e-01,1.068912170780326187e-01,2.352648748133254197e-01
2.196554752755621731e-01,3.639314301747831326e-02,2.092287176353211930e-01
2.682104178309951958e-01,6.622501962141150722e-01,2.029903171719295019e-01
5.200384394189491166e-01,8.242475298203021383e-01,1.776893689033297585e-01
9.675677136451307225e-01,3.911334400666572897e-01,1.620501529302006694e-01
2.601379420046310287e-01,1.744139060391916018e-01,1.985446169829749030e-01
5.527973090545637014e-01,9.860549948721021307e-01,1.529074164803255753e-01
6.258811006152192880e-01,3.928408067675979165e-01,2.274862152045562524e-01
8.881347115097893985e-01,3.984598083143234826e-01,1.693548525130829652e-01
4.382922578212540277e-01,5.834290792986915886e-01,2.400732178520759708e-01
5.863698944091249032e-01,7.885256539917074869e-01,1.897366095748169723e-01
2.094289012303215403e-01,9.116541213668261090e-01,2.107150875489948449e-01
4.470031701583131456e-01,9.487404147315645631e-01,1.551762410705947171e-01
9.336488573149540615e-01,8.428158628815155540e-01,2.251757361797444013e-01
8.346342691594900165e-01,1.269966201612666712e-01,2.177010475872234452e-01
2.234477502156863027e-01,5.723343675228571570e-01,1.925398854930300829e-01
7.661104375529278476e-01,9.832434365232951556e-01,2.050246265267775536e-01
1.710770319553932550e-01,8.976941444550941007e-01,2.190424105384903286e-01
4.607436226952772440e-01,5.541259306702961407e-02,1.544225024350084907e-01
4.987486810026380279e-01,2.277396243310322310e-01,1.930296909840439890e-01
1.318326752415084346e-01,6.014306993030064108e-01,1.728305884898931055e-01
8.055787715715367892e-02,1.516265842573487621e-01,2.253413081145951846e-01
1.565934916632431007e-01,6.446687793826547663e-01,1.829838920679958680e-01
9.639168104176391028e-01,8.198295932998379554e-01,2.206969575764410052e-01
6.121045533522579962e-01,8.244829315584514262e-01,1.828129527633746698e-01
8.774111329080800381e-01,2.502895352146476959e-01,1.999347145007424331e-01
6.312739237040948526e-01,2.758853585606536596e-01,2.054948943067208822e-01
1.442547668070990330e-01,5.387188212502511675e-01,1.700778215852845887e-01
6.568229416073156912e-01,8.805513832317778400e-01,1.797941626750602928e-01
1.544537815626544353e-01,6.485146375842120170e-01,1.831849171185146452e-01
6.245542481186107109e-01,2.747891163082472055e-01,2.054998580815916021e-01
2.836171943776603088e-01,4.830922789604188416e-01,2.104236993662874644e-01
3.553885143347172981e-01,4.031209041089471867e-01,2.252200859194586902e-01
5.010765877676331970e-01,2.770458031867972792e-01,2.084556613573241290e-01
4.226790518259889717e-01,5.775405937609141560e-01,2.390700434464360369e-01
1.966242177172294880e-02,5.321092472277950680e-01,1.513874684414084626e-01
4.990532787074283272e-01,2.144673739609259666e-02,1.504541548767047987e-01
8.289310516034684717e-01,1.994413528233157651e-01,2.074317804457010694e-01
6.038798757109701265e-01,4.715352280478080083e-02,1.620082218517413242e-01
4.966724491757209536e-01,3.878001037489099412e-01,2.380731379143694870e-01
9.583582646349581013e-01,5.847560165313812064e-01,1.583899668816171336e-01
3.419481657538219199e-01,8.189561608997342201e-02,1.762298758655559128e-01
8.643165857038104249e-02,5.833088838349071992e-01,1.629252719746764888e-01
8.140545934595566635e-02,8.015123345806272059e-01,2.138668401022589538e-01
2.661579535809007746e-01,6.464753836376290197e-01,2.030686279658272808e-01
9.912615955936107115e-01,3.763141363309647769e-01,1.644076568797671056e-01
7.062135118860346505e-01,2.746323472587521852e-01,2.020938613131950112e-01
9.207900372353079455e-01,8.143596306187603773e-01,2.172860652896748956e-01
7.627857475491208739e-01,1.075139181962558865e-02,2.040032902040868901e-01
4.148877238697118441e-01,2.543013995796625792e-01,2.011625147262522673e-01
3.624346576527560648e-01,8.589917801567950040e-01,1.794701013247187449e-01
9.620841540201641173e-02,2.887029116140578111e-01,1.900941172083898123e-01
3.699036011019618542e-01,6.413347214115455719e-01,2.215814709952352024e-01
3.528613216237097561e-03,3.571810553674917843e-01,1.688237924769039611e-01
2.752249839957978672e-01,1.452665358084297420e-01,1.951736774164289923e-01
5.213756268154070561e-01,6.751562216799656957e-01,2.224517549882280842e-01
1.674175811299249972e-02,3.592280184037777158e-01,1.684911776811942874e-01
3.298694868122058477e-01,3.558240935238377034e-02,1.765468554738950924e-01
7.920646545658572846e-01,9.924668164387447922e-01,2.130470542346699636e-01
9.687025923466319188e-02,4.899397161830459924e-01,1.590610002246738708e-01
1.031220737697127188e-01,6.392735469499983836e-01,1.744481366957794100e-01
4.875690068106104391e-01,5.938813773521196548e-01,2.414238593312624248e-01
7.470707160330009033e-01,2.478177274632440419e-01,1.999873828265260611e-01
4.000924577650577518e-02,3.698533342462900775e-01,1.668810011564050844e-01
7.725331304131028975e-01,3.123558536001754815e-01,1.973059331146098383e-01
4.320964708653816100e-01,9.149881400225845507e-02,1.617993955780462345e-01
6.632223251727775715e-02,1.668536170645110728e-01,2.228140622403032289e-01
6.084325516471004169e-01,2.889970877244134595e-01,2.094213004940871092e-01
3.430852781507217619e-01,4.502489877407922503e-02,1.734926481922296204e-01
8.318594569183901388e-02,7.150022960350821410e-02,2.390254710303451602e-01
6.874168679747594268e-02,3.250712479262116705e-01,1.793669749782345335e-01
3.917754987057212590e-01,3.498602811522165679e-01,2.228247674070781836e-01
6.074206659043236423e-01,4.260318805671137188e-02,1.623531632359206944e-01
9.024573618158032717e-01,8.261601046324753561e-01,2.188332479805931707e-01
4.771850600613108950e-01,1.311866002559608502e-01,1.663936157925554327e-01
5.459758125055823585e-01,2.012434170099856034e-01,1.855459217299892660e-01
2.777822676221413101e-01,5.785501015999764407e-01,2.076474650421571977e-01
3.834747404059465348e-01,4.129305744981468518e-01,2.317595388861548034e-01
9.958650401420505727e-01,4.799847741087515107e-02,2.477272568933281127e-01
3.119269823758485938e-01,1.617332549750886139e-01,1.900115890394878937e-01
7.672123018290880614e-01,1.500764768697415708e-02,2.053728935116198584e-01
3.560520499268753358e-01,2.688711689198057808e-01,2.036559568629765227e-01
4.271040001526105190e-01,1.169201119970957325e-01,1.667203779592651980e-01
8.813656387461609176e-01,9.032929671836775753e-02,2.309804643407727398e-01
9.729271294499193257e-01,7.786760686280143062e-01,2.088308674641449758e-01
3.620145843054456414e-01,9.710655601129600800e-01,1.681769479871937367e-01
9.840752541239369267e-01,1.423105845082703880e-01,2.311519573582397902e-01
2.811777399634854957e-01,5.254759148772216726e-01,2.096078344636589930e-01
3.443353205594901212e-01,1.577681856112194136e-01,1.847044840374915398e-01
3.971820409659155837e-01,4.442781975026605101e-01,2.375021710245275586e-01
2.668294195581084605e-01,1.335354808851452191e-02,1.947412936078101175e-01
5.499006577063478840e-01,1.252948851976166678e-01,1.664306326640942191e-01
6.631616715852696187e-01,1.285006392193502878e-01,1.820603364996674078e-01
9.183421152744123406e-01,2.635350489382827233e-01,1.962998073556996848e-01
7.435576964980837866e-01,9.949517128170558555e-01,1.979776610896487599e-01
9.402431766855933182e-01,1.001148963464633113e-01,2.376132088711926660e-01
8.189608522796409940e-02,4.991412915904565040e-01,1.564753695908306097e-01
3.481182660976339660e-01,2.142574225975957258e-02,1.713526061957998947e-01
9.077250005343112660e-01,3.181251365371919881e-01,1.826371015019852551e-01
8.198806460831968845e-01,1.099857701005076960e-01,2.163784942091102059e-01
9.663258139970454241e-02,6.919152459708381997e-01,1.853440263148399547e-01
6.090397723130828167e-01,9.747311780158429695e-02,1.683197347057943938e-01
9.406417838082050675e-01,1.400343870140954294e-01,2.296724094628457002e-01
9.683609505146139051e-01,4.077394803897228526e-01,1.589922282527957420e-01
6.600749570443013026e-01,5.789406489606807593e-02,1.749803100577867199e-01
4.033048570307548042e-01,5.181995955621199190e-01,2.407842410724352067e-01
9.580708468021893465e-01,5.913592252819918071e-01,1.594625629364999353e-01
3.574517826248446717e-02,3.141290336126125737e-01,1.808864296057653975e-01
1.891020456957017704e-01,4.633902435963255240e-02,2.178825246107253533e-01
1.341256581284314686e-01,2.310307337928415583e-01,2.039561185728197557e-01
4.017310655493493421e-01,2.559070024419466405e-01,2.015127523779089436e-01
6.103582807413876488e-02,1.588290310870466016e-02,2.461373471702019144e-01
7.076554638176525414e-01,9.545498191046262182e-01,1.873858887063041823e-01
7.784768268787145562e-02,5.840564539858765780e-01,1.618768428868068709e-01
6.821514698618946770e-01,2.525852924936266009e-01,2.003358347796088679e-01
7.511475029887145771e-01,2.600424327227989219e-01,1.999772683734870882e-01
4.354217519383936086e-01,8.850201110432018847e-01,1.655359154144274980e-01
3.838282910616013233e-01,3.181697792363027411e-01,2.154762598937763618e-01
3.388325794658101353e-01,9.073952743476615401e-01,1.778765905130776370e-01
1.686122528876224935e-01,5.489211983592404698e-01,1.766780613196790028e-01
6.024666242701562924e-01,8.863795530780094190e-01,1.697745568945656092e-01
5.939964080073967256e-01,3.394529964276238321e-01,2.221324656620461968e-01
4.569430824275899639e-01,1.002214165291065440e-01,1.610598588344815396e-01
8.398138044192030582e-01,2.479620010573827527e-01,2.003424244294106926e-01
3.058886679082678528e-01,8.773489217440881838e-01,1.876600914364089656e-01
3.027521917647481020e-01,3.567854677752554382e-01,2.101160912746596054e-01
8.073841964728306619e-01,1.376867121873792676e-03,2.176390452682550325e-01
6.169957318606574814e-01,2.404296191695928231e-01,1.977711512358975576e-01
3.125214955519589610e-01,7.173887267576121163e-01,2.038945350975449322e-01
5.196847089714796697e-01,9.608351024258559026e-01,1.518767053831009406e-01
5.054863852899064147e-01,9.962102539188093520e-01,1.500438707937825633e-01
6.886374220208278940e-01,2.549095356695058046e-01,2.005799510772576233e-01
9.902283848329890281e-01,7.549086463548411174e-01,2.015389471127359000e-01
1.649343588406156913e-01,9.512541973843890997e-01,2.242845074023618046e-01
1.551092256840669314e-01,8.981928025059866538e-01,2.225249386818467512e-01
9.937176862970164004e-01,3.585047259250176976e-01,1.685166968172671365e-01
1.172557750050495784e-02,1.427850325021469136e-01,2.311075835308057658e-01
2.893706791561861946e-01,4.710503611807635993e-01,2.120409246598026209e-01
7.695586769308210284e-01,8.586883031445584624e-01,2.038677722986964869e-01
5.986244940459907182e-01,7.945540281712260011e-01,1.887537032291821681e-01
9.250731627984533079e-01,3.555210928562092532e-01,1.725732631403863182e-01
4.451170120639249550e-01,3.797957282224495579e-01,2.342613239931790603e-01
5.331110979328778088e-01,6.000761792825874963e-01,2.395648382487878258e-01
8.692046600159820668e-01,5.534714221205905282e-02,2.320068546418531108e-01
6.066707682862436668e-01,2.727939856255577888e-01,2.055927034872578052e-01
9.307354833440928399e-02,3.191234019702540170e-01,1.824568044047258086e-01
1.938255681972947952e-01,9.072798598600413378e-01,2.144326026422551101e-01
8.256232178627084251e-01,3.202383479414315781e-01,1.902298251592428047e-01
3.112565990900767465e-01,9.496171563433450924e-01,1.821601072850313474e-01
5.120303086747470811e-01,6.099444113774736831e-01,2.384267511875653722e-01
9.816986043745592472e-01,2.027746101143890201e-02,2.492672017277117180e-01
2.744516076136291893e-01,8.785238620450135372e-01,1.944711043286422303e-01
9.654326533396871968e-01,9.352876122917963553e-02,2.406344281450843725e-01
8.782708014335480762e-01,2.950225151490561970e-01,1.899306594421651950e-01
7.099471271086910118e-02,5.421988802611633629e-01,1.564688668203085831e-01
5.806921973010321647e-01,3.601636043074118998e-01,2.278965091783888564e-01
7.968675457255276484e-01,3.549305267975741973e-01,1.911105034374567246e-01
9.453749867873528778e-01,2.832796764538527690e-01,1.902262521513446991e-01
9.805832369627113243e-01,3.627372588340557202e-01,1.677127328163091347e-01
9.251260239410821207e-01,6.373717626516506307e-03,2.445325523113434651e-01
9.599581177725495795e-01,5.187292672696477425e-01,1.519090408497399680e-01
9.128161001178662914e-01,1.715055470830260109e-01,2.202083390476073377e-01
3.948387354063167543e-01,6.687258951441463761e-01,2.192943601836987444e-01
3.074148838815695672e-01,7.032792989240896908e-01,2.051067788093181576e-01
2.724441058019074768e-01,6.499170376978891106e-02,1.935501717554433676e-01
2.661157197596022428e-01,9.136918909983372528e-01,1.956708830420630096e-01
3.503365229868448116e-01,6.134319413234979868e-01,2.223002861899075477e-01
2.579417313796276146e-01,1.806437022454463470e-01,1.989472702660139147e-01
9.038554908222936612e-01,6.071661022969954136e-02,2.381925057560869696e-01
8.929771074370606021e-01,8.581708213733143520e-01,2.245848534220465376e-01
1.363935117940185959e-01,2.227014669580729134e-02,2.324159856246992006e-01
2.173409441491129801e-01,6.414804780019378594e-02,2.093718760442334070e-01
4.147981658270041283e-01,5.750062884980633449e-01,2.383167764915141706e-01
8.337818642650123291e-01,7.057130149131574104e-02,2.226924618978577963e-01
4.518999098607940912e-01,6.009106414572418231e-02,1.556282245686256838e-01
4.684261855151816700e-02,8.040081338518811904e-02,2.418730608789428915e-01
1.386957971651114896e-01,1.878118732561417925e-02,2.319619869039519500e-01
4.093247391750443054e-01,3.316164307850949511e-01,2.206566212032126384e-01
5.333748930772969077e-01,5.634739407412123757e-01,2.450666471239981159e-01
2.830520246823209352e-02,6.488767262675328995e-01,1.707940317581529144e-01
5.328438640293942097e-01,8.929100790424441270e-01,1.617277088490119419e-01
2.402508997780201661e-01,6.588293845656232328e-01,1.983409478177306229e-01
4.611611233423521528e-01,7.793856012843323189e-01,1.910925736773213257e-01
1.128154326724383205e-01,5.282412425970181014e-01,1.626401205941248596e-01
7.887733774580314439e-01,8.603162736268296085e-01,2.077063466465872421e-01
5.494518722589932791e-01,7.021515273924017198e-02,1.569524645256294426e-01
5.446195697453176665e-01,3.662515497009910526e-03,1.519648307636398687e-01
4.074788125134556349e-01,7.506951377081287902e-01,1.998174896288351932e-01
8.142329723640951977e-01,1.031584865822580133e-01,2.156537060133922878e-01
9.311741484701074878e-02,5.192921324416747142e-01,1.586222985683186926e-01
4.403163827557091681e-01,1.292980185258563175e-01,1.680019453454233147e-01
9.886288809894150376e-02,5.962949099576864143e-01,1.665581318235044295e-01
9.713714751346456122e-01,9.790368441595133087e-01,2.487671643203750171e-01
4.695173675559990434e-01,6.361587312240766234e-01,2.321920476454947813e-01
1.581948704061423294e-01,6.939455719775688980e-01,1.905933775289460064e-01
7.014168872091172124e-01,9.692973427432944877e-01,1.852518420023901158e-01
1.090542215290141170e-01,5.017603841706209655e-01,1.612879927289745663e-01
4.702694077265072714e-01,8.944143334446200688e-01,1.612906355731580366e-01
4.267438479083719427e-01,5.154978176194795481e-01,2.445841516771504465e-01
4.523641701166369877e-02,3.864510360359787455e-01,1.637113691103362634e-01
3.345787636107483420e-01,5.104633465949450777e-01,2.252833373041607523e-01
2.104929469112564178e-01,5.710645975779804484e-01,1.889199448564699846e-01
5.115266872842677559e-01,9.668727471293059317e-01,1.512074459284440398e-01
1.861595572605141413e-01,1.932532423540682665e-01,2.068142209349091154e-01
9.926747669785906947e-01,6.001500493458199470e-01,1.596196841824809032e-01
8.909419948928437583e-01,2.954378028775017651e-01,1.890970195873815651e-01
2.466992390002767932e-01,5.348015973809677748e-01,1.989878001771960836e-01
3.060442412148313140e-01,3.469708862156630769e-01,2.098691155454999180e-01
2.923165036575502418e-01,6.658946479916890704e-01,2.066241334921016248e-01
9.294214579570214685e-01,2.981927482019764986e-01,1.865322951470497759e-01
4.382893084604957412e-01,1.144204463103815073e-04,1.537117103412255492e-01
4.210786834546166313e-01,8.357209027242584742e-02,1.619473259203248472e-01
9.023260444852396756e-01,4.244237946114520765e-01,1.636466074610083976e-01
4.581427596633942390e-01,4.680123054641051050e-01,2.473088930362114524e-01
7.320258533368331211e-01,9.065646824809203697e-01,1.953086969526816319e-01
1.279348220186788954e-01,5.021526790244632554e-01,1.653057621725419202e-01
1.036727939254092901e-01,6.440578530776807087e-01,1.754440767661746281e-01
1.741096804757533700e-01,6.246654438306475932e-01,1.837389669308496232e-01
3.645014535640609399e-01,9.454752668796759796e-01,1.689667209092003686e-01
8.572745760313806862e-01,9.710675204148132567e-01,2.306926057185517409e-01
5.974870200541312348e-01,2.027343843681574942e-01,1.880284569289003282e-01
9.856829256953451024e-01,8.812701013437641562e-01,2.365719369511624648e-01
8.227238893914332607e-01,8.578336863404959489e-01,2.138289820107247829e-01
4.532359366702396475e-01,2.901975208780399607e-01,2.119591007299173047e-01
3.526924163232483256e-01,1.018000794573413748e-01,1.758748534356355808e-01
6.081827522157245980e-01,9.747239049517766318e-01,1.616023233295129369e-01
6.067242792719457212e-01,2.511962822528910344e-01,2.002944428511177211e-01
4.483042755067911944e-02,3.053935264739593425e-01,1.836188933395417888e-01
3.457560861730645252e-01,7.831585767640525386e-02,1.750573719779589810e-01
7.483932068693508466e-01,2.755380505911754208e-01,2.000806500802445320e-01
9.423099453769512301e-01,4.717352298375651065e-01,1.539842467626975631e-01
3.542268215940613807e-02,1.721447385798846597e-02,2.484817170848937773e-01
4.151045379210336339e-01,9.194898940112534724e-01,1.623383304027656016e-01
1.254529890855955454e-01,1.357790016814243161e-01,2.231845475510727539e-01
4.520431911026223659e-02,8.412165392627641847e-01,2.260269457546336125e-01
3.258523862305772179e-01,9.997799088692455038e-01,1.770622254259507922e-01
6.120378854485806208e-01,9.281891858671021955e-01,1.656999077983606905e-01
4.723820495271868758e-01,5.685045988205096323e-01,2.447569562275106747e-01
1.827082557592873968e-01,9.013354355302747312e-01,2.166984497924408226e-01
8.234731692964836203e-02,6.760113795876614429e-01,1.805181405461670496e-01
2.267135243291511504e-01,2.454277802520230534e-01,2.002093872451687906e-01
6.581192138526037461e-03,7.777470461011463110e-01,2.086654869476020913e-01
9.774124966057780028e-01,2.944471900830462063e-01,1.863558737334925497e-01
2.944798180962148182e-01,8.707842389920884552e-01,1.905089217655930867e-01
9.801597087329144697e-01,9.628017568095297296e-01,2.482630871809676787e-01
4.608391349893858902e-02,3.558338963215923467e-01,1.704323904188042582e-01
8.985044696787869434e-02,2.142224325137984664e-01,2.094160036075117248e-01
9.766867106451140312e-01,9.654960491183328664e-01,2.483066664545600100e-01
2.212727287536899734e-01,7.005103052777290618e-01,1.972536452006326824e-01
8.670912447270681112e-01,1.713749772777051206e-04,2.335555161686527215e-01
6.678092359965996927e-01,8.917842844662524637e-01,1.808019553362707477e-01
1.079456301889289982e-01,9.856712613912617105e-01,2.387761532261657160e-01
2.789934390667824227e-01,6.207650618836934031e-01,2.065733045622615560e-01
9.161433629555925107e-01,4.248139379481689071e-01,1.615146996429490944e-01
8.294823560809583274e-01,4.621951510969712906e-02,2.229424164845516532e-01
9.825442209643572289e-01,7.506958499692008013e-01,2.002172934979616348e-01
5.193393498822740373e-01,3.140263178941556932e-01,2.194319439945317252e-01
3.669228130080136596e-01,1.820201268966922248e-01,1.861155261282398388e-01
2.099896574575067509e-01,9.607201108918986820e-01,2.120607618018332252e-01
7.952207832488759065e-01,9.079315954663066401e-01,2.117356250789943495e-01
8.368202760360166081e-02,4.168848881950413254e-01,1.625179116527031842e-01
8.559920400275392582e-01,8.685778294968240498e-01,2.209442922598444659e-01
3.561130827894010142e-02,6.627710125963202081e-01,1.745971441747824482e-01
4.485702905554794784e-01,9.986947227898208546e-01,1.525894824547624207e-01
4.472049738588368406e-01,6.186844694335132955e-01,2.347276926942245268e-01
2.684701483685622003e-01,2.844529895353686832e-02,1.943026707644801843e-01
3.629744330114872408e-01,2.066079373646495521e-01,1.912255069716804756e-01
6.085947333258494574e-01,3.318885729404608131e-01,2.190969167287052100e-01
5.235475123659619756e-01,8.303142610921475653e-01,1.760899535314650044e-01
1.893759783098740712e-01,1.893585523708920526e-01,2.069124327077111747e-01
4.562306263869571055e-01,1.598132180648464962e-01,1.741677551873155871e-01
9.038850157093346604e-01,3.569720462226250168e-01,1.743741227170090002e-01
6.475032779501452840e-01,2.410842560881409913e-02,1.703235682331613599e-01
7.296739713991651222e-02,5.095633254578653126e-01,1.552443329616591816e-01
6.663447108499707117e-01,1.462863608699455087e-01,1.847843869264486349e-01
7.313204940312442170e-01,1.882907497683067310e-01,1.977863385466092916e-01
1.141494668208842267e-01,3.392291767883037767e-02,2.368290101120188451e-01
7.592063209287638337e-01,2.640575017055418749e-01,1.997450136463241599e-01
9.889519879259129898e-01,3.078428082178852332e-01,1.822683624337113062e-01
4.171040371530687629e-02,3.200946548171357264e-01,1.794119700763938952e-01
1.513838148340715950e-01,8.879425514385275164e-02,2.246334471039359015e-01
3.119867687633626208e-02,8.382061355331155150e-01,2.258098607741358121e-01
1.817123253458948762e-01,1.272883832063326226e-01,2.144955285379870902e-01
7.800001460251362317e-01,3.183285563752658032e-01,1.961000748241925606e-01
2.028883586425606067e-01,6.745125651816403778e-01,1.933386153446795264e-01
5.158779433717475271e-01,5.060142870423908201e-01,2.497158663635103415e-01
5.891835810708829779e-01,3.277245209109971302e-01,2.198711422582479980e-01
6.779086429204130848e-01,9.862078541459395886e-01,1.782005126049227561e-01
4.079808132855518021e-01,1.289701453971697775e-01,1.711389715528147115e-01
9.135101374961462906e-02,9.599720079217823887e-01,2.406665049258208400e-01
4.805976154156574864e-01,4.276298319124747227e-01,2.445859314618313574e-01
2.695543283096520915e-01,1.715503994479166128e-01,1.971003924035373556e-01
3.898888582300386041e-01,3.744057054755507430e-01,2.271241594225512639e-01
4.028433494397846149e-01,7.117853368027882155e-02,1.630599520372018885e-01
8.013898480543506508e-01,2.664642271495886172e-01,1.983616728942078078e-01
2.145144256590204579e-01,7.708188731024934182e-02,2.097844567374469726e-01
5.785323909474351378e-01,4.202240884308452440e-01,2.386185101322575719e-01
3.961902598737033765e-01,5.201524784541157187e-01,2.394177104363684194e-01
5.741234839484338215e-01,1.037594716801935046e-01,1.644877416782187796e-01
7.488509864736984101e-01,9.633487100392115199e-01,1.996485591546023619e-01
3.645293259392656804e-02,7.024806545960454729e-01,1.856762744726124514e-01
9.950589397626873334e-01,7.377129200164695977e-01,1.961455915399964167e-01
4.791241882449692735e-02,3.112622619921531220e-01,1.820699737126198203e-01
1.634910436094113573e-01,1.582884681515539516e-01,2.140899107653802813e-01
4.328692404075518141e-02,2.487111587210873997e-01,2.003900133716224330e-01
1.022178031192889636e-01,8.718099245842937384e-01,2.277376130051991798e-01
9.023011321679548224e-01,3.830353001807210722e-01,1.696777998601840254e-01
8.696598468831959750e-01,8.967219123141334514e-01,2.272081664317863181e-01
3.657218353163260716e-02,8.453404967196080921e-01,2.274515156493538970e-01
4.576014679075367519e-01,2.384319490355738536e-01,1.964970709621977896e-01
6.029758291153796135e-01,1.952491915463228089e-02,1.604055296115995954e-01
4.180601558952838914e-01,5.215769989147996943e-01,2.431191770467194257e-01
1.852392565098547328e-01,7.311599900933685170e-02,2.177366915494272359e-01
1.392169245639334196e-01,8.917112731761537292e-01,2.249212387451808015e-01
8.547602434312100428e-01,1.712854777483447943e-01,2.145178629395750325e-01
5.248640623096921809e-01,7.722858953597472320e-01,1.931065232330230752e-01
7.557002911661063749e-01,1.150545439538801507e-01,2.013426053365187929e-01
3.289894457550661677e-01,6.265133754520874065e-01,2.166746570919845793e-01
3.732536174488562120e-01,9.142643285199238967e-01,1.699865163923997280e-01
9.954150349145106658e-01,3.419603538319331282e-01,1.727020464609126948e-01
1.277311417456666875e-01,1.509027944113511266e-01,2.202619226906355476e-01
6.525694390774692266e-01,9.994908478773745220e-01,1.712677350389511244e-01
5.339815210446142713e-01,6.905706291704956090e-01,2.178252624857568709e-01
5.282518507779101480e-01,8.537747824144390485e-01,1.701364569728708587e-01
4.125008896566902949e-01,8.047762411005588978e-01,1.856152808770992479e-01
7.877599199531941654e-01,3.148388710246385891e-01,1.953437772187237298e-01
1.319052455798885859e-03,2.227223831176106117e-02,2.495095137475713543e-01
7.048833346444479675e-01,1.933349948283282771e-01,1.951254446802923870e-01
1.532190721358840380e-01,8.878454377420511578e-01,2.217613223890866903e-01
5.917465260175502895e-02,8.617671873558452322e-01,2.300902412338469150e-01
6.577506282527463277e-01,9.233761075170112687e-01,1.757276421066326089e-01
2.015009729426298080e-02,5.482303615285756271e-01,1.526602812057690217e-01
9.639444752021688601e-01,8.486711538542793809e-01,2.283082205346647076e-01
5.617277337329721343e-01,7.897076677039905901e-01,1.885714369872108498e-01
4.767824381153800140e-01,5.830048082423983091e-01,2.428923037265786067e-01
5.562574203178458632e-01,2.299864756366175600e-01,1.941168187708562920e-01
7.503519142334484915e-01,9.906486312194175969e-01,2.001103662431527597e-01
9.965879340476242465e-01,2.904258974722995212e-02,2.491585347890117319e-01
4.592437006555396550e-01,8.734536353356828764e-01,1.661315052966727546e-01
5.943952720380687449e-01,8.905375118819528479e-01,1.679650517774911589e-01
4.826481263671046351e-01,7.192586969746028736e-02,1.552866267968745495e-01
2.429167421051253717e-01,5.793094085568495366e-01,1.980459919840719951e-01
1.199975533744879197e-01,5.492423349049896375e-01,1.652817547041448010e-01
4.202357496923447844e-02,9.385273676042175106e-01,2.447113348188427462e-01
2.068986647071198171e-01,9.105169179229015697e-01,2.113167606589257674e-01
6.325526217003917262e-01,3.655128091834264348e-01,2.223266562769410093e-01
1.973522695182395870e-01,9.251266072561959986e-01,2.144756037198206622e-01
4.732292584985008377e-01,9.480359059578601366e-01,1.533098474152617685e-01
9.872891430291051984e-01,2.471202019035346753e-01,2.009017822756805349e-01
1.284318016433710907e-01,5.670721638854181457e-01,1.684411329663863810e-01
2.965996062392243227e-01,7.318306729696911761e-01,2.016439326616325245e-01
4.970386716939750871e-01,9.920191262492950024e-01,1.500714946142262807e-01
4.838463575348249668e-01,6.871259870177045537e-01,2.191436450063606323e-01
3.247032770428505133e-01,3.265908852284652442e-01,2.104685566665917829e-01
4.343528754159265981e-01,6.615695455424021043e-01,2.241618118287723171e-01
3.173140124150723995e-01,7.849630728479434216e-01,1.955278131168105282e-01
2.653587773083230239e-01,2.546600655067614571e-01,2.001410399249892724e-01
7.771429998655210447e-01,8.553719894551164993e-01,2.052167555147313138e-01
9.774796690824990586e-01,1.361602310364782298e-01,2.324635758532569152e-01
3.270870309493029149e-01,1.344421842638224840e-01,1.845423859705745684e-01
4.974416058404661500e-01,2.413633213053449911e-01,1.972883892258765481e-01
7.760358056745654265e-01,2.165407528378674451e-01,2.016993168623481825e-01
1.561858065682559804e-01,2.433021558925875238e-01,2.011693855399108166e-01
8.615204976008885573e-01,8.112890707055652184e-01,2.121099057565939139e-01
9.327101329756704029e-02,1.187070037333480821e-01,2.305972324184513977e-01
5.852142452929369743e-01,4.529262967038844012e-01,2.411354970708704248e-01
9.200673752351085088e-01,9.983730685068774591e-01,2.438232373723326074e-01
6.934682596698649171e-02,7.379712997653514739e-01,1.965774100981491634e-01
3.847824140376882029e-01,9.817458817855075903e-01,1.627858065140519450e-01
6.058056171326628991e-01,2.553680904602124713e-01,2.013270445913551421e-01
9.254722324754843799e-01,8.295125027150941355e-01,2.213747749834792389e-01
9.624021532901150255e-01,8.199486475013388898e-01,2.206834963939788841e-01
4.523918305664864636e-02,8.055462759974255649e-01,2.164121710557782019e-01
8.137549857221929583e-01,1.953486346904855786e-01,2.065644517803792157e-01
8.191812472891957242e-02,2.632112660628587175e-01,1.963914489778983974e-01
6.235634125554969653e-01,2.584847031543013873e-01,2.019008625382686106e-01
4.950756384901475737e-01,7.805382354220709029e-01,1.904694553331705287e-01
4.598392068102119534e-02,9.233944071671399412e-01,2.424820653576628127e-01
3.412482787460623390e-01,6.889269401299357165e-01,2.101539261863430430e-01
2.282527745778789585e-01,1.274195413376381092e-01,2.047422309755718983e-01
3.488369921985592370e-01,2.425859528131013576e-01,1.986452317859542238e-01
8.565994944074825090e-01,1.796713600979383818e-01,2.132745182796007000e-01
2.703615749717430683e-01,6.351591659051649685e-01,2.042139467910732142e-01
