8.486603425315959459e-01,6.270638124403771219e-02,-3.413040897485040970e-02
2.590972551086083708e-01,8.054469528107928156e-01,-6.453640860206409646e-02
6.514418004548363506e-01,3.206670630078356510e-01,-4.136094079833934484e-02
2.809449498609298823e-01,1.453948135926502738e-01,5.028182889406582201e-02
7.507483454430450287e-01,8.152127403258413452e-02,-3.473722561550883492e-02
7.470382012662968307e-01,7.404933230589473281e-01,6.992475108349845148e-02
8.756789419278276920e-01,8.865113474124730608e-01,6.048967325635965647e-02
7.975430418548730138e-01,9.947021086061202944e-02,-4.706783156712596172e-02
4.402377798892320726e-01,4.631823838446397223e-01,4.279344415362003502e-03
3.492335432423799846e-01,1.456743841478497226e-01,3.615984350247033324e-02
3.006971825784482411e-01,7.442968026027904083e-01,-5.856356766279342818e-02
7.243087734479822792e-01,8.780648713217902301e-01,4.491550935436649378e-02
4.717778467422173438e-01,4.377193729750258333e-01,3.377244647857606703e-03
3.541542673004514086e-01,2.271845370283421817e-01,4.377864613490518170e-02
9.205728225533469367e-01,7.063914191880115157e-01,9.328805129460313039e-02
4.404959236987227023e-01,5.638688333804834363e-01,-7.259609298461137082e-03
7.219979995745474666e-01,1.792030592614127782e-01,-5.797466543311621812e-02
7.483149735517946599e-01,2.044880994053844825e-01,-6.747914819677958143e-02
6.368018673310602562e-01,3.764270016540386399e-01,-2.919745485497736437e-02
6.749928257588008185e-01,8.201886471246206955e-01,4.724894318053714237e-02
7.046242064652099568e-01,6.094122169875038075e-02,-2.239741120130792074e-02
3.371253566912962851e-01,8.833877357673135533e-01,-3.275139356367341020e-02
3.663238851592733880e-01,3.825176545257062966e-01,2.743673340125746263e-02
3.221861224714264171e-01,5.342198999377631985e-01,-1.130825946585562423e-02
8.462309636656220047e-01,9.647428050258638477e-01,1.945771666405803763e-02
6.890681216047376267e-01,4.422213384550621740e-04,-1.555045075399941299e-04
9.432511768989932932e-01,5.246471681494027095e-01,1.517996733465245066e-02
8.291022646401537965e-01,3.021163308921254176e-01,-8.136425656231908998e-02
1.994415467840245926e-01,9.770304710022506001e-01,-1.165020262216016900e-02
7.939061504842715999e-01,8.246169948268813332e-01,7.115509863182599426e-02
8.721173520242083699e-01,3.294535608885396094e-01,-8.080492857841066467e-02
6.636562648591251001e-01,1.673043812428983701e-01,-4.268821951730611408e-02
4.710278598368257130e-01,6.190843737229372312e-01,-6.183835490361786272e-03
3.077741708768169104e-01,6.906723853863144802e-01,-5.288548583871201247e-02
8.150581419096938340e-01,6.268017902560512056e-01,5.977294945132192311e-02
4.997892627824345180e-01,7.883329843065108866e-01,-6.429402296322480519e-05
1.036549261460125715e-01,9.230525076363386150e-01,-4.404286515768416482e-02
6.634563573757062960e-01,7.138047215162648396e-01,4.785914667901286501e-02
9.632623013396948153e-01,1.769114438147832979e-01,-8.904309105068697328e-02
6.675486326048644115e-01,9.575947248855454230e-01,1.322807583093011524e-02
4.130424560965633152e-01,9.151521041990496874e-01,-1.371173015819514285e-02
7.369694168797623623e-01,6.654042926450778328e-01,5.840922329919995271e-02
4.973205380245161455e-01,9.276136530755472176e-01,-3.697867484949605510e-04
7.065223167535106263e-03,8.529638749021990485e-01,-7.977347240988721944e-02
1.061652614197973188e-01,6.226206849313038472e-01,-6.580776398459163568e-02
6.090116515703004607e-01,1.692238609415630535e-01,-2.934843757053207103e-02
1.418689441280043262e-01,1.262050924659479101e-01,6.428433135790381781e-02
9.180013118679997142e-03,4.247609612061752360e-01,4.551388685132864292e-02
3.286987182749642189e-01,9.392100630921198512e-01,-1.910474277850500793e-02
1.228298918464477696e-01,8.248296069163195687e-01,-8.259379952417238158e-02
2.846058171455663199e-01,7.689658654145392624e-01,-6.217676386386289389e-02
6.585409342918042697e-01,8.989434790725348012e-01,2.833631771395567212e-02
5.947549088715736731e-01,1.570456304020018123e-01,-2.446851698362832728e-02
3.878996850923629447e-01,9.399202925905140171e-01,-1.271410257073816996e-02
3.226700455032324166e-01,9.186266496054341646e-01,-2.587040322890517621e-02
4.816935365973896710e-01,8.617478752274776443e-02,2.962397100194600740e-03
1.034150793234632770e-01,8.734820899568482844e-01,-6.764760524971139000e-02
1.276270520376300288e-01,7.347249886147446674e-01,-9.164526294530815631e-02
7.385597693922777429e-01,7.778276053315291705e-01,6.708551432334768083e-02
4.850508149280984282e-01,7.814173808323218173e-01,-4.603525658333776187e-03
7.732732615017209321e-01,3.284225641640313720e-01,-6.668330380569115201e-02
9.706127593655905494e-01,8.259079054824679522e-01,8.846187801021410113e-02
1.461359822868699698e-01,6.105087205767403269e-01,-5.736247984369159669e-02
5.033979172257763146e-01,9.673323690935400343e-01,2.175695622534878308e-04
1.861695976308503919e-01,9.260240089159247345e-01,-3.737424981653855727e-02
8.734125714145692942e-01,8.886046319252842718e-01,5.938846660245697406e-02
9.974305177160981417e-01,4.993903813876636733e-01,-3.830212547266088289e-04
9.624315207895183244e-01,6.435351333053533907e-01,7.790228950422600773e-02
2.240177476589918504e-01,1.509780952578430036e-01,6.195421104548431285e-02
4.078772351141388697e-01,2.965660717765177257e-01,2.732604602842314198e-02
4.328860791875769332e-01,8.309974806905120470e-01,-1.827631075159789550e-02
5.937055379775135755e-01,8.170557390847411616e-01,2.647768419373953269e-02
5.765780281613168690e-01,7.350131427144840357e-01,2.372074514635861414e-02
4.018902733712017561e-01,7.998630766438301620e-01,-2.885966230469737617e-02
9.039165531385531249e-01,2.204423551033519724e-01,-9.383683811077345172e-02
4.237006468789734637e-01,9.711013950584197474e-01,-4.287178560907289361e-03
9.086135769536772822e-01,2.532416075620029794e-01,-9.588704902584849199e-02
5.709457860441167210e-01,8.584902167678072349e-01,1.716446861415323738e-02
7.101570851681719976e-01,8.534191512763549259e-01,4.883093348799191769e-02
7.918527854509489483e-01,9.196144842036525491e-01,3.840559431816963076e-02
3.771098155449922329e-01,6.011337213378918909e-01,-2.234957856379895039e-02
7.486677166533416417e-01,3.653515717876310021e-04,-1.616404697295481768e-04
5.200354398146606050e-01,2.339657262922656411e-02,-9.213586372671062150e-04
6.863782436363945472e-01,8.945629858683806779e-01,3.399126178297325052e-02
2.212272143488817067e-01,1.493660506309711922e-01,6.195623532297710873e-02
4.173098448910647074e-01,9.179915460599062937e-01,-1.265771507554416635e-02
7.966233319427875603e-01,5.476452870001431439e-01,2.367371391475124598e-02
7.442704982146471915e-01,7.541660116506174738e-01,6.940273378878332455e-02
3.032616318662093580e-01,6.043697701479640028e-01,-3.533421805034524243e-02
7.600463490301923031e-02,5.794157168865021745e-02,3.459665652984924428e-02
7.970048522169403959e-02,7.530251626497306283e-01,-9.686417307709549451e-02
2.297244072147768268e-01,1.121573004969264042e-01,4.862995850340911391e-02
6.293808977399507620e-01,9.760370306062081669e-01,5.930256343413559811e-03
1.765565463135385649e-01,9.406356365502214212e-01,-3.097743352464985694e-02
9.941834916183306392e-01,4.315145990494029249e-01,-4.170797066094617672e-02
2.620741988111138232e-01,8.869334871854247515e-01,-4.433205220021689541e-02
8.851673098735248768e-01,1.804997169237948507e-01,-8.478296971649845748e-02
5.753367089509229260e-01,3.107937174749655362e-01,-2.175750621243384766e-02
4.214266653734077828e-02,1.505251479521569902e-01,8.038550495190183165e-02
9.285925775600735177e-01,3.831948722974646282e-01,-6.529940678977060042e-02
6.456536295644730306e-01,1.783480828062022905e-02,-4.940231509001094534e-03
8.945164304755800488e-01,1.358562767591475762e-02,-8.061872125261552308e-03
5.223731183717232884e-01,1.344938298912459196e-01,-5.253185107466323660e-03
7.028048891215435967e-01,1.671046060181862192e-01,-5.160074521761951610e-02
6.462814595320583999e-01,4.999654538267453985e-01,-9.627716033466603542e-06
3.663277201742374256e-01,1.410990245323622272e-01,3.159324155552051261e-02
7.003564317621305824e-01,1.182961267322103494e-01,-3.983693362889365042e-02
2.323092258904361218e-01,5.853523747485522843e-02,2.679718737546939525e-02
2.378827153725082688e-02,8.282154662154807001e-01,-8.791922883437520986e-02
2.496574435787167756e-01,8.353581919366210862e-01,-6.084786649184138752e-02
4.465026817925206171e-01,5.818124467308259939e-01,-8.225020423916358167e-03
2.818000074609505745e-02,2.881659242635836726e-01,9.675804822180072984e-02
5.951832891772903533e-01,9.996419650785984823e-01,6.627104759030753866e-05
8.488369494514013125e-01,1.607583006748855015e-01,-7.531580279066145411e-02
8.045009654621045891e-01,3.024169291366195500e-01,-7.733237140351467698e-02
6.888046821591360391e-01,5.512196509295612668e-01,1.768011448872880767e-02
9.448688851303213010e-01,5.186370883009643329e-01,1.150848368631345563e-02
3.907501728503484095e-01,9.922145578422704171e-01,-1.645508996456299805e-03
9.130616590163788127e-01,1.641910532095657294e-01,-8.263345137090945258e-02
5.420035235369602411e-03,6.862444022720268766e-01,-9.206982767314703109e-02
8.788409341781566742e-01,2.506372106813801182e-01,-9.284224270087911013e-02
7.819016345853753158e-01,9.854545952377957718e-01,7.066663873066402098e-03
4.652537818658377677e-01,8.241704661513846730e-01,-9.732432911092393432e-03
1.993824507368701093e-01,8.505493367333527566e-02,4.126435353845319537e-02
7.450768894258508190e-01,9.571633351918403809e-01,1.850982509470330134e-02
7.553867983123310204e-01,1.122214280603573977e-01,-4.659769500537120496e-02
8.023004650557529205e-01,9.769466673494187070e-01,1.173855497187827751e-02
5.799832461931753169e-02,5.920146548385467611e-01,-5.374252613589582117e-02
9.956107612161929632e-01,8.163839110925344977e-01,9.141797072783541811e-02
1.689619280148890734e-01,6.633607651964967822e-03,3.593448310403254270e-03
5.048673369116896126e-02,9.012572119952853011e-01,-5.740788679406493705e-02
1.397360070938400423e-01,6.898199283454053976e-01,-8.412374034086823882e-02
7.628715314305222206e-01,9.647815246299689118e-01,1.613448704672602527e-02
5.050870087037241385e-01,4.110449106787148477e-01,-8.474079469044618496e-04
4.444011770994434896e-01,7.593082164019294700e-01,-1.734849112431311249e-02
4.146584075377719447e-01,9.752553722377456102e-01,-4.102086396532836528e-03
4.103115580089709002e-01,6.612799902769680438e-01,-2.359568765754927258e-02
7.453326470417205307e-01,9.491309824310527610e-01,2.188951853053059185e-02
3.988990941996358730e-01,5.016391218352040937e-01,-3.216337504484252327e-04
1.569441685392678476e-01,6.874797540643666771e-01,-8.137944134033413268e-02
3.693683830428260428e-01,8.142311419429595354e-01,-3.669160783448962432e-02
7.300180446067492390e-01,1.257269535374568870e-01,-4.697793084871049879e-02
6.921537173619606298e-01,1.268222197338372270e-01,-4.059702564987660578e-02
5.232629007910530872e-01,7.769130100467980249e-03,-3.562926331605096144e-04
9.484587781456006450e-01,8.322249224417582747e-01,8.581130801797516583e-02
1.210973242228926550e-01,9.150987786582225336e-01,-4.721498167370546950e-02
2.558205291100124068e-02,9.680944266577536927e-01,-1.984858497128401053e-02
7.840482436964397728e-01,7.009987402446090643e-01,7.419472764577042523e-02
1.942498152857887739e-01,1.844554343307232003e-01,7.509842942644674724e-02
2.370247980560731271e-01,7.549724824076933238e-01,-7.349762052901508136e-02
2.540246376066945810e-02,5.898936958222650295e-01,-5.335591625836336171e-02
5.955034433911976510e-02,5.372636046366257023e-01,-2.279526413986850478e-02
7.538160015803536673e-01,4.655222758290850082e-01,-1.537962939933791399e-02
9.644452009315773733e-02,6.017545488463512671e-01,-5.694891335564328250e-02
5.441659621917717127e-01,2.802380109340275594e-01,-1.358179840869989247e-02
8.953043712512281926e-01,2.346395776420466817e-01,-9.419904172026355438e-02
4.077674342616973702e-01,9.766041157337878031e-01,-4.184985640996505447e-03
6.089706455270901264e-01,5.240166229994078773e-01,5.046442064572492260e-03
1.975075088911404375e-02,4.194032616651340861e-01,4.841025117358679214e-02
8.183861410770643108e-01,5.384612115695733836e-01,2.014064795903905414e-02
2.826045545608686371e-01,4.160683325272362953e-02,1.631110060752965704e-02
2.034814924972749850e-02,5.214171521033746926e-01,-1.338881327999409156e-02
6.756342019623624573e-01,4.109138475442646321e-01,-2.783325070223374373e-02
2.634623039035186576e-01,6.687313300334117860e-01,-5.902725287793356840e-02
2.173126305516942525e-01,8.675151266953702311e-01,-5.738059102416681601e-02
3.866607641855572819e-01,8.863391833917553253e-01,-2.283180021822620032e-02
4.274981030668580928e-01,2.008986791086768697e-01,2.151458693320827675e-02
1.294518374620734491e-02,2.339697873627549773e-01,9.941092885084473751e-02
6.512933364223005839e-02,6.444561531016834710e-01,-7.716174588141826163e-02
4.197848488794131416e-02,8.691685991586423077e-01,-7.261736845174734944e-02
2.507099948708823023e-01,6.618397742173391940e-01,-6.000269517986466655e-02
4.159366814672914581e-01,3.502599615305143077e-01,2.109296718001997528e-02
7.094563762908420168e-01,8.705872304367193726e-01,4.442579719435497260e-02
6.438008539552189102e-01,8.293454222253839880e-01,3.834160296596677425e-02
7.426543455391337867e-01,5.739186113543699452e-01,3.093386413880941030e-02
4.264509332314585510e-01,1.185749935562063762e-02,1.704617040884420483e-03
4.244353232495986505e-01,7.946583420541745157e-01,-2.259725573329533777e-02
4.075150330043481040e-01,1.019578268202447902e-02,1.833988462258814931e-03
4.103973721719048617e-01,7.831496029776240375e-01,-2.717881461196851658e-02
5.923623392900501106e-02,2.442556293330607753e-01,9.820939985266288752e-02
8.435265030994615332e-01,1.610740310814919862e-01,-7.475219116457937352e-02
7.775198754656051925e-01,6.237880330505873872e-02,-2.924144606210481168e-02
4.417931953364325759e-01,8.138397225623926756e-01,-1.674108390039366276e-02
2.918006678130219411e-01,1.035733043630161498e-01,3.685849615154188769e-02
4.658371149604844108e-01,8.106644809977203714e-02,5.223325590828381895e-03
7.364136061492976282e-02,2.298676430133637094e-01,9.655804713533626404e-02
2.478059982495421920e-01,5.304014996616501776e-02,2.329021736538237214e-02
4.245537346737543460e-01,4.628386265647254083e-01,5.432901708987240841e-03
4.768922923286480486e-01,6.785320440957642862e-01,-6.534061619547577165e-03
1.239404727241697479e-01,7.702831931044062941e-02,4.304794058389514733e-02
2.900853674052028541e-02,4.490289532092417435e-01,3.135074610278740931e-02
4.414137150475609950e-01,4.780813340486353979e-01,2.512530296242592321e-03
9.944264080499964908e-01,7.410526930408709578e-01,9.982671543738805275e-02
7.357813531039721910e-01,9.297920528531760098e-01,2.881245056963200463e-02
7.651281467952796289e-01,9.273483716627923812e-01,3.261447446688445911e-02
2.652803130079183225e-01,1.438009015877144137e-01,5.281495089607244481e-02
1.291532980804113162e-01,1.280193865616474636e-01,6.619031702120220517e-02
9.843871782107687096e-01,7.561250339839038492e-01,9.980577776847965321e-02
1.937956595683520966e-01,9.230311654986576020e-01,-3.814302551796750623e-02
3.693258200732155716e-01,7.989311978366926414e-01,-3.803775350415043721e-02
2.647300646422716675e-01,6.810909290910560632e-01,-6.114789298710771037e-02
9.486795615423450068e-01,6.559648126259878254e-01,8.197022842744652871e-02
6.716191445231793899e-01,6.665754083950030662e-01,4.444815563048598595e-02
9.017539272838286379e-01,4.308819054375243596e-01,-4.008759224581934233e-02
5.094407766640337565e-01,8.685894349229115186e-01,2.179643008395607331e-03
6.533693737531004464e-01,9.332139523642724033e-01,1.887977711883097320e-02
3.450252410215428611e-01,1.903340666430123340e-01,4.353655323255384985e-02
1.406699609575379206e-01,7.960501880029924315e-01,-8.663542525492951007e-02
6.707436186468561656e-01,9.841552743377681711e-01,5.079384207210348862e-03
7.627830196547723540e-01,3.281898341270218511e-01,-6.480054760960626825e-02
9.047675213850522313e-01,3.893294736292369773e-01,-6.122049319456941696e-02
4.373774978456137497e-01,3.879381533606750532e-01,1.265364861206839768e-02
6.992755273526334303e-01,8.287773961503938080e-01,5.156185081028477613e-02
6.938187996447126027e-01,1.323424740672940469e-02,-4.750596835210610033e-03
5.691416291312401121e-01,1.196814822692990887e-01,-1.472125545081085299e-02
8.281694964430696970e-02,5.587993396651665945e-01,-3.489469121461739876e-02
4.502187906729112621e-01,6.368982303504731046e-01,-1.180541250397370255e-02
1.945641079818143382e-01,1.817488655717022228e-01,7.447824785380699475e-02
4.227842123592644441e-01,7.385051077749353876e-01,-2.395821821874588586e-02
7.715977569442459272e-01,7.997527300604320155e-01,7.169068645022400044e-02
5.483676233208045758e-01,9.471026356782237254e-01,4.938789881437056876e-03
4.355566129310771695e-01,5.228950695065969212e-01,-2.882572768509738398e-03
8.428062544694968627e-01,1.268876971701389245e-01,-6.299622869246433721e-02
8.613296067888239760e-01,2.116228243289476341e-01,-8.803684696848892988e-02
3.007688469467290071e-01,7.529611292863235272e-01,-5.857280448805826656e-02
9.948211888004232506e-02,8.309789996615024599e-03,4.966012995530233454e-03
7.292468050903982979e-01,4.696147250260532813e-01,-1.251524790355287679e-02
1.456177955408255453e-01,8.150803460310640514e-01,-8.232037942616385329e-02
6.555169289072620975e-01,9.347754998561316198e-01,1.870145230892678728e-02
2.340365181514321158e-01,6.358760158869172230e-01,-5.590221930225690999e-02
4.424047292118734598e-01,2.742710899041179706e-01,1.778666901861260599e-02
6.289424836900618931e-01,6.736036787724303254e-01,3.495595098466065809e-02
9.650071230766028574e-01,7.112623139006138961e-01,9.646664612113273196e-02
3.095515553105503415e-01,9.001759322655155104e-01,-3.305649743284909403e-02
9.065603760546294687e-01,7.701972274815788166e-01,9.495255411514480492e-02
6.015318893661916189e-01,3.387944873981790783e-01,-2.660382842964871541e-02
4.560845360860492637e-01,6.438576420366821651e-01,-1.080600308942420568e-02
5.376823030487081212e-01,4.739607033975293815e-01,-1.923721869901552466e-03
4.400198028720836430e-01,5.500308616914129090e-02,6.345587376352811518e-03
1.402072375044416397e-02,6.503936107918772969e-01,-8.096820904271080643e-02
9.357171172558427230e-01,6.606657043658029638e-01,8.293572393896589401e-02
8.991530678031994794e-01,1.613368823078057401e-01,-8.065550431310913870e-02
2.344636401899274913e-01,9.552367472278747718e-01,-2.056082098800179545e-02
9.957606856738653311e-01,5.615450840470448401e-02,-3.455234423150436995e-02
2.408529926185352110e-01,7.560457090982062311e-01,-7.266070457125031745e-02
2.685396988605365243e-01,1.795852691547786817e-01,6.007407229681688277e-02
4.433009612193903326e-01,9.860065310346106671e-01,-1.555865670527019134e-03
3.848722221578373404e-01,9.086819325627821797e-01,-1.920702328569407966e-02
2.345771717053402039e-02,8.521094949418586140e-01,-7.989809400045777554e-02
7.993121622760037681e-01,6.581656085949540991e-01,6.769679287726891592e-02
5.931217754744773085e-01,6.218018233574817977e-03,-1.126444520686494455e-03
9.005432899688106119e-01,5.280855006148396091e-01,1.670521811758498426e-02
9.282245847741412703e-01,7.136077002594976015e-01,9.493148998677040928e-02
4.771038546157878590e-01,2.674975877613334774e-01,7.143445385854669399e-03
6.318995664990242345e-01,9.856983942693622325e-01,3.613040570571749658e-03
9.135110669656779647e-01,3.296062064283973303e-01,-8.453029184749720482e-02
8.214142662310305321e-01,2.796218181664990032e-01,-8.320775457980089662e-02
5.558157597533553984e-01,4.672457669294999283e-01,-3.564971880473053086e-03
1.922662441881336504e-01,9.581939210792972395e-01,-2.137193532734446566e-02
1.557842384356488141e-01,8.827154564734092101e-01,-5.931233487142104771e-02
6.745104682712544930e-01,2.272088053254535112e-01,-5.158519035578982420e-02
9.161919083310146039e-01,4.269840334267520632e-01,-4.275870673640062153e-02
7.161404842768039902e-01,7.704505886521307856e-01,6.228572820587750108e-02
5.709066461992792219e-01,3.187997991323704428e-01,-2.005999190345289854e-02
8.608635527020691569e-02,5.657440812239334926e-01,-3.868425827953053675e-02
9.717839624250164121e-01,8.416274414338696941e-01,8.355114207795447112e-02
3.085527424231807592e-01,1.472682406409062672e-01,4.519967921047841203e-02
2.847718242721511972e-01,7.468190777201277886e-02,2.829931421381972831e-02
4.835751277272747339e-01,5.862719290178660669e-01,-2.660896442516046644e-03
9.290374896919486591e-01,1.806334138947106593e-01,-8.840806170217907489e-02
7.344124176619274413e-01,2.809888029982327007e-01,-6.589547145367045944e-02
9.567495901199540853e-03,3.761069498765661212e-01,7.018545103346680858e-02
4.504628534826277120e-01,9.450994964102580331e-01,-5.241255639050435185e-03
5.446474765392718131e-01,3.525889878159891300e-01,-1.117527297333407305e-02
7.964322135563479677e-01,2.791488895924384428e-01,-7.889585363882364866e-02
7.971386224181253866e-02,9.543642387187323273e-01,-2.740025176286656899e-02
8.116865080834628765e-01,9.760293403386720579e-01,1.245430216146917526e-02
4.632235192100266907e-01,6.139263444278044712e-01,-7.565085865661460088e-03
9.689537210188711169e-01,2.399044898204951703e-01,-9.932456806654874071e-02
2.263450492130035796e-01,6.172099920510473181e-01,-5.088892498280192522e-02
1.943868473679022379e-02,6.879574702808192166e-01,-9.232514439484419688e-02
5.118631441327127218e-01,2.758932657889086038e-01,-3.676850612183284270e-03
6.607883865436080528e-01,8.861206801416063872e-01,3.174598459167644882e-02
9.000536945867085858e-01,8.402289741705581960e-01,8.023135480734436276e-02
9.281909882635189790e-01,2.743204057206659607e-01,-9.633038379602795742e-02
2.464814634514823632e-01,6.572583027356282415e-02,2.869020692849761495e-02
7.251766793705266556e-01,6.196644231447445694e-01,4.438667839879210236e-02
9.792182020107329521e-01,5.554338588872739235e-01,3.405743711159011505e-02
5.867775955026525159e-01,1.115312916194352022e-01,-1.736180152730455034e-02
5.393894898305089391e-01,6.053507348285347422e-02,-4.582324007291167269e-03
6.993826243534322362e-01,2.464208287406518538e-01,-5.860667955649069560e-02
2.069649564803072161e-01,8.942488739946404808e-01,-4.908141223220355981e-02
5.069370802446959701e-01,1.466073702908575749e-01,-1.735287507909129105e-03
2.517921185442713039e-01,2.222569457768830414e-02,9.786981737825661831e-03
1.884304225577434488e-01,1.716168536137185896e-02,8.930861233969536461e-03
3.163669703411947642e-01,5.769307907492250420e-01,-2.534966334623705783e-02
7.345828436882557710e-01,5.652778098017594566e-01,2.679764943065448754e-02
2.546193051729973567e-01,7.968055383532506308e-01,-6.668566483450348581e-02
8.357200015838595064e-02,2.546708998312917638e-01,9.653156252939465443e-02
7.213181935524700661e-01,7.176096870529532490e-01,6.273887038313397113e-02
8.938525869722052652e-01,7.786941234301479886e-01,9.295961248850641290e-02
8.081955649754080095e-01,9.827401236197351730e-01,8.917239109359169705e-03
6.298306663583330689e-02,7.417095735361922682e-01,-9.791581559150676350e-02
5.148160940459526325e-01,5.064663218582526882e-01,1.889924538609970934e-04
4.175685805875093415e-01,8.044579092527288644e-01,-2.412358507326073376e-02
2.136770338652591583e-01,6.259610385266142218e-01,-5.570136020083094053e-02
6.416344551833482734e-01,1.627771464364042853e-01,-3.673842373117507110e-02
6.088379700748982604e-01,9.917390910685663918e-01,1.739591820670258714e-03
9.390492166822252962e-01,2.044408795092516051e-01,-9.417745438769596633e-02
4.428522922548697727e-01,3.146767136251480412e-01,1.640288949142742342e-02
1.671143570655981847e-01,1.020201958323224689e-01,5.174679386667151854e-02
2.183169524404735551e-01,6.910826838769282832e-01,-7.214500373299025104e-02
3.594216003459738129e-01,4.385683621196652116e-01,1.609131724004905784e-02
5.480156681943508801e-01,6.607776697791108989e-01,1.272726774873513683e-02
9.906380722063845568e-03,3.899726094382264252e-01,6.372478523279639928e-02
2.438289088118211767e-01,7.029719476798901301e-02,3.080685044323354382e-02
9.328953974788725123e-01,3.200058477763485509e-01,-8.847794501868312678e-02
5.056042678983710958e-01,3.602650006474825695e-01,-1.354650298759524493e-03
7.504596523353048720e-01,1.245555769264596879e-01,-4.993213373069881750e-02
3.234491439875675223e-02,5.858686263678959394e-01,-5.110815275430938970e-02
1.425840838306345892e-01,7.312017282682211627e-01,-8.950608839702822728e-02
4.045087908383552255e-01,3.984447676148118456e-01,1.760272019202419741e-02
3.184116131650259751e-01,8.400645784390180504e-01,-4.558477945003454324e-02
3.819485537739557568e-01,2.223151618770394800e-01,3.569566310367937312e-02
1.337982718879189292e-01,7.136913434045666360e-02,3.958071178172656301e-02
3.261899865113392361e-01,3.117731140053700001e-01,4.806800724805362912e-02
5.731233540258950931e-01,9.307909970541298206e-01,9.592840536286275852e-03
7.158224528724448366e-01,1.617088890884202934e-01,-5.331888552044916629e-02
5.514641775725168671e-01,9.283750198646588681e-01,7.002380357357081316e-03
7.101272220545397085e-01,9.008378755218351408e-01,3.578265711291210571e-02
1.626866362222781914e-01,7.213102420175101503e-01,-8.580765712341284490e-02
5.059708698331913945e-01,7.576394648436132195e-01,1.873533677271741003e-03
6.830390136395282363e-01,1.068153618145017969e-01,-3.382175694933223231e-02
7.916586671533871744e-01,5.954532161814469760e-01,4.477888079796465276e-02
9.817349102543525552e-01,1.999231174605967665e-01,-9.493420646096979720e-02
8.170401474345929671e-01,8.126204688637401752e-01,7.751770935328317069e-02
7.187696442630745475e-01,6.808197638758017867e-02,-2.631942258747950458e-02
9.518153021308488615e-01,1.847363436450232266e-01,-9.066079237678770220e-02
3.327196493763593388e-01,6.692993507612925441e-01,-4.385474398596987677e-02
3.559318579115569037e-01,1.967638335633724589e-01,4.130713470498594692e-02
5.153024252038529429e-01,2.727448395257092706e-01,-4.756558082164681449e-03
3.195600865299014215e-01,2.709420860340225889e-01,5.323510986428998948e-02
8.903168431024993668e-01,7.757563942500690368e-01,9.289192724363565246e-02
8.588868311169607361e-01,1.465622250039085861e-01,-7.191728224780707945e-02
3.135582629388700138e-02,6.185813352863652748e-01,-6.747351709135461506e-02
6.204424731085931288e-01,1.093097669536132743e-01,-2.342383788760031907e-02
2.460257002580947816e-01,7.982792244692600292e-01,-6.831944139787522741e-02
9.503773965034262305e-01,7.157917265766250425e-01,9.651420104946867307e-02
7.616227819170312552e-01,5.905109519719209388e-01,3.944491991241636658e-02
9.651569167731407495e-01,7.046623065105377393e-01,9.539556949162292243e-02
5.421157730696867239e-01,2.404711475541388976e-01,-1.316885221827224228e-02
8.293300725383900840e-02,9.983641137319076986e-02,5.671440447969734733e-02
6.495807538761138034e-01,7.493166557475736678e-01,4.528123873325493043e-02
7.780619607921216430e-01,2.656891534663980980e-01,-7.628961843772992524e-02
8.865969546535232837e-01,7.880340434922602499e-01,9.105712961045647758e-02
8.632220862201016587e-01,4.683634639651760301e-01,-1.795197100113257033e-02
1.291852239651996026e-01,7.680532082108493253e-02,4.263708367580453656e-02
3.466874974223405070e-01,7.745829562526841405e-01,-4.577231277187038261e-02
5.145387041321380917e-02,4.023863655985462362e-01,5.680856014976074647e-02
2.032589558156702170e-01,8.231092554036505415e-01,-7.197197690933547498e-02
2.317182197325446946e-01,9.319889609896350180e-01,-3.093911058019782265e-02
8.584251534679361306e-01,3.168862899734034011e-01,-8.241586533139999560e-02
3.494791122684064444e-01,2.307992693154916619e-01,4.521375744789965512e-02
7.916322868449061634e-01,1.453017845280603071e-01,-6.277409729315533427e-02
4.813647962180228612e-01,8.423788476628013555e-01,-4.892818178122163020e-03
6.044488820564185572e-01,1.548620622283889414e-01,-2.663935129118533834e-02
5.532281290005597318e-01,6.915735369211716277e-01,1.553528637365262158e-02
7.124450403845885571e-01,7.274770440378597325e-01,6.127708208342275142e-02
8.440237702026577304e-01,5.499207105716086286e-01,2.722357580363407581e-02
3.832977958444138133e-01,4.291006451954503254e-01,1.544604538772276561e-02
4.572646036438949846e-01,3.029831858432150415e-01,1.265053212048826252e-02
4.000240939650371308e-01,4.641985276323176146e-01,6.891172053150245586e-03
8.798203617561001222e-01,5.192291912625758288e-01,1.120379623371490531e-02
2.631457799404801623e-01,1.499915447136808133e-01,5.479338037378925219e-02
2.575322148533557565e-01,9.400924506408409043e-01,-2.536986671626158610e-02
7.015704187883122778e-01,7.114829390395600583e-01,5.745242766781984145e-02
3.196391352228653560e-01,1.758353536328086664e-01,4.795502221658667907e-02
5.917328349225192685e-01,7.266292643397765927e-01,2.811559268718354446e-02
5.658316833940508772e-01,2.729950412009851668e-01,-2.032055518959834453e-02
1.363181002622524396e-01,7.215749008538571152e-01,-8.952212621090303857e-02
5.800993369914644315e-01,5.285514908788903066e-01,4.442857370839074435e-03
3.507616220606302182e-02,7.835229609293155040e-01,-9.719679064504962995e-02
3.201240797910928082e-01,7.719015675184938141e-01,-5.304352776273671410e-02
9.881860846134090659e-01,2.495520203812465754e-01,-9.993073769921648197e-02
9.933888256668251815e-01,3.823537971499889609e-01,-6.735463667544325239e-02
9.204262862376910714e-01,5.280534497161348817e-02,-3.156066573435203915e-02
5.991948661670437604e-01,1.452618951424170524e-01,-2.425786542694128092e-02
8.143565181591158053e-01,2.086341393221733398e-01,-8.066610745900516799e-02
6.853624728877121264e-01,6.855523030289223385e-02,-2.296406743871826084e-02
4.052477541179603238e-01,3.052426495185686095e-01,2.758050583239646941e-02
4.199855014125961628e-01,2.470378695731856311e-01,2.486909260530455884e-02
5.337094026555133652e-04,3.242160232093305172e-01,8.932307486465278223e-02
7.420583866123275918e-01,4.617349752277494224e-01,-1.641211051816648600e-02
5.963366226125649261e-01,3.294856878055785199e-02,-6.126334450024282369e-03
4.392204253515756829e-01,8.033994966771651480e-01,-1.792039009344418427e-02
3.801448858923983654e-01,8.110901848230397393e-01,-3.409448222137194395e-02
4.293843551631073563e-01,8.564525486813584498e-01,-1.726200657278686643e-02
8.711316755896280073e-01,7.235849742290578757e-02,-4.036407937735980722e-02
4.051730852882451384e-01,5.315322003503687442e-01,-5.777337568138041397e-03
8.294110447774916128e-02,1.006076323155791208e-01,5.709242922064704934e-02
8.013129744827967027e-01,7.375986697770964273e-01,8.089725517714269065e-02
4.961799572954834758e-01,7.611142724836702511e-01,-1.197148021982856816e-03
6.776019642182443681e-01,9.171666746007868243e-01,2.632835854444787876e-02
6.768562547528780282e-01,4.260835249846931516e-01,-2.362576054918700402e-02
7.108025424654336177e-01,6.329173402408835303e-01,4.558807569064392967e-02
4.524026356114624337e-01,8.455910338497285572e-01,-1.229024414618928515e-02
9.471159972105219760e-01,6.849983192678346100e-01,9.051134373438445013e-02
8.121401507740161341e-01,5.763181741723080176e-01,3.833122023209927648e-02
8.062438173259192098e-01,2.743919365906360985e-01,-8.107743782445582525e-02
3.664355393319763676e-01,3.780155327193468473e-01,2.825656245489635565e-02
7.764290546085275135e-01,6.833653933014358639e-01,6.973845584465848679e-02
2.986412758225952535e-01,9.857830496525324948e-01,-5.274331470848994501e-03
3.716700104478787292e-01,7.168372055682739052e-01,-3.838413414750532771e-02
6.007689773622728602e-01,8.138292086757725752e-02,-1.523412646045004849e-02
2.612256879661579712e-01,6.346022295079171149e-01,-5.102486532058155000e-02
3.872206853684045935e-02,6.634084660673695844e-01,-8.492856644152663170e-02
9.813071896731057064e-01,5.187692772817663611e-01,1.174548580637516798e-02
4.339313949495220424e-01,8.848040739216903594e-01,-1.364690501035546732e-02
5.289850317835318450e-01,7.193336561035520438e-01,8.925057291843429760e-03
3.419793634964762852e-01,3.349790355358364113e-01,4.099992379107668394e-02
5.458141799890667833e-01,5.183323899866518758e-01,1.648494410494668987e-03
7.499168495141276258e-01,9.830214268274014566e-01,7.527114470792181829e-03
6.454792905090790400e-01,8.425535586224555118e-01,3.687525992900627519e-02
8.949170974467109962e-01,1.330400714154666986e-01,-7.018481538056560443e-02
3.292202816775737784e-01,5.066589705213795369e-01,-2.137997460574877270e-03
8.111631334806425064e-01,9.458812240751219846e-01,2.765337390510491655e-02
7.228830682995546209e-02,9.453536651301356342e-01,-3.280023610743101892e-02
1.034894859391728428e-01,7.424006773180369390e-01,-9.465318155393075139e-02
5.513962230798438169e-01,3.104852849513245472e-01,-1.492946547284495010e-02
5.845357732104426995e-01,7.258698369637506254e-01,2.594551830971342232e-02
8.467052594652320074e-01,9.995872801816916287e-01,2.298241848342032819e-04
4.020815487511647524e-01,8.751228205635068758e-01,-2.139403593525914665e-02
5.705649198894091612e-01,4.694018007942702964e-01,-4.201193836346399021e-03
9.534793834433605841e-01,8.897573028638445791e-01,6.317902803573259563e-02
6.224768846229494779e-01,2.244946524599342741e-01,-3.705387952361847287e-02
6.314954150807063904e-01,3.644798751574218620e-02,-9.113550657115108630e-03
5.086766862469372930e-01,3.532807274673820386e-01,-2.171505815959205374e-03
3.732217089968988821e-01,6.981341580029846172e-01,-3.674263017893047989e-02
4.649108471636076434e-01,6.243670907397144143e-01,-7.748076067034716762e-03
7.576665120080657845e-01,1.545955343595029063e-01,-5.977130437144926450e-02
8.439149690785577862e-01,2.231652179660841284e-01,-8.696557567291146595e-02
9.312903883193427435e-01,5.053176059531934161e-01,3.263005326097450504e-03
2.842525201561428849e-01,6.200802726083156635e-01,-4.294919168955964317e-02
9.467946515397491769e-01,6.036779235965084034e-01,5.978719759254455535e-02
2.787024398130218961e-01,6.068243139503439743e-01,-3.983792312319078821e-02
4.987257833292753073e-01,2.362666226062775099e-01,3.988165191312159044e-04
1.937939109075604849e-01,7.910194328421793486e-02,3.911308889974524777e-02
8.232244172436178342e-01,4.815328887927128321e-01,-9.837297326491236879e-03
1.526760970921577920e-01,7.192140245327104386e-01,-8.706127040264247108e-02
3.203536673899799458e-01,9.895016896930375339e-02,3.115382299452355147e-02
7.384619733423630761e-01,2.951821263047088584e-01,-6.537583409721135774e-02
3.096586288203660997e-01,9.718528640439609845e-01,-9.904512156009745785e-03
3.041634325032216424e-02,6.962051021019574071e-01,-9.391147995158127815e-02
1.906154587585227045e-01,8.898275664222732306e-01,-5.271964903305381006e-02
6.559125055580171670e-01,1.418513672914981649e-01,-3.659605214532127976e-02
6.209118237703827869e-01,2.759731175487684096e-01,-3.658599656720063625e-02
2.444773810123435087e-02,6.907042558754760142e-01,-9.286505229210126333e-02
6.816902836164060453e-01,8.121106680549563528e-01,4.996789599892684230e-02
9.627927808688866440e-01,7.199411303061080680e-01,9.755153633659785495e-02
6.697178154875144118e-01,7.852630457099480932e-01,4.958532447432006940e-02
9.717554553870653145e-01,8.259095927330383224e-01,8.849022550370599927e-02
2.927254780370379672e-01,8.992024621248662086e-01,-3.587206155704781435e-02
2.709635644717124370e-01,1.023251508462138526e-01,3.951206080122401931e-02
1.146448545663719676e-01,6.960898160559397807e-01,-8.826618440571180890e-02
9.808351845321292561e-01,1.166478322547106483e-01,-6.678303814553931961e-02
4.572424884137615830e-01,3.447600446867697954e-01,1.108785534838080747e-02
6.764412014767873238e-01,2.674964090451340537e-01,-5.231762973655458560e-02
9.108675496548699346e-01,5.668413059767950513e-01,3.918576020414968331e-02
7.657265729309207236e-01,7.332150900656461134e-01,7.370474396325818467e-02
4.821618698346024079e-01,1.601068884411372961e-01,4.731163728438483179e-03
7.262973063305050436e-01,3.414184137357993976e-01,-5.478212639248630778e-02
5.980076093146609040e-01,8.827532236668766963e-03,-1.680050392656065638e-03
5.896490178003088722e-02,7.114890512346216944e-02,4.249038430410766870e-02
3.363906889173139403e-01,3.449354391400903941e-01,4.067536104091468846e-02
1.441838805900345077e-01,7.542715911266899553e-01,-8.988287598773954390e-02
3.461568182080568823e-01,1.703100816144921259e-01,4.076681837637783495e-02
2.575520959646238062e-02,9.140461618036254121e-01,-5.125085550456696254e-02
9.876379473243857010e-02,3.341208677203433286e-02,1.984446678797933267e-02
7.188804748354925556e-01,9.539178586703941365e-01,1.812185690362981202e-02
1.258330965352849606e-01,9.774601492661116886e-01,-1.302629638063990992e-02
9.178127104147238979e-01,5.254975432194262108e-01,1.542334564293466707e-02
6.086971705653722031e-01,9.792897430747848908e-03,-2.059261670020674957e-03
1.628736053385463345e-01,8.403519559859281562e-01,-7.351530466322496460e-02
2.913327822995430694e-01,9.059667950518206503e-01,-3.395732540440523500e-02
7.120083677253822296e-01,8.275247382080404002e-01,5.460164108556900958e-02
3.631663304535642789e-01,6.775184557738629376e-01,-3.742812288004829929e-02
9.056618923595785020e-01,4.114888056378818160e-02,-2.445283587570694361e-02
9.903875890233158064e-01,4.988085538901344540e-01,-7.482593649857792635e-04
4.652678742010242230e-01,4.038041829295792029e-01,6.188463474345240120e-03
3.357668296053910595e-01,5.154292957474958525e-01,-4.775441228074986909e-03
8.972758740778342679e-01,6.638896599023473843e-01,8.129202258104284429e-02
2.487299881099680476e-02,1.758672174056137294e-01,8.907406656519262222e-02
5.140593655382175164e-01,8.911437132710576803e-01,2.789988979626695492e-03
2.179163723350745485e-01,1.304246686251544496e-01,5.661225276015471874e-02
8.200431233491388694e-01,3.312698881728609601e-01,-7.366845091462846662e-02
4.786068723189230711e-01,4.372159583300863073e-01,2.581090993040610973e-03
8.899139393620432159e-01,1.647966218114481629e-01,-8.091641303629476534e-02
1.219758965155967045e-01,7.998625942945275513e-01,-8.823267959666340754e-02
3.915834881264497191e-01,1.449190129033506302e-01,2.638495692261985312e-02
5.739918120834166526e-01,3.632602529855522011e-01,-1.744538075997077720e-02
4.013505375566751576e-01,8.709008828332563956e-01,-2.211348620593727582e-02
3.861798896077408561e-01,5.683767706317324198e-01,-1.457872007582761836e-02
3.351516645135710348e-02,3.815167951109761368e-01,6.738164690802160572e-02
7.175435312277327338e-01,1.998706279935075214e-01,-6.003942340461801419e-02
4.067426225642215565e-01,4.024813561112802196e-01,1.660911214157415397e-02
1.097236619453174633e-01,1.200036719305639377e-01,6.442940999637096489e-02
3.659885459696543553e-02,8.631559835126730862e-01,-7.527196368403699100e-02
9.824582826795777990e-01,3.611124936122521722e-01,-7.648759260870031940e-02
5.997070404284754463e-01,2.464868900598937707e-01,-3.080664831441220705e-02
5.336725678727110012e-01,9.587714150174079242e-01,2.704742668403987971e-03
6.813147119179642219e-01,4.357952546445408304e-01,-2.117098282743734225e-02
9.030367449186595952e-01,2.074294457221927956e-01,-9.200387482627257751e-02
9.511014180702378473e-01,7.919894914062470814e-01,9.540300543925142596e-02
7.221476218888056575e-02,3.027976910957256296e-01,9.212502821411089338e-02
3.465765137220127023e-01,8.362679708150768665e-01,-3.971018454727193170e-02
6.263178687366007802e-01,4.155548858392561495e-01,-1.955860808890283464e-02
9.381388458625872229e-02,5.637996360466879242e-01,-3.733895931104183608e-02
6.009574732171604206e-01,2.582841570921743379e-01,-3.114539740965658471e-02
4.607004559660757836e-01,9.820624198680409922e-01,-1.385024277604629929e-03
4.178232949764433268e-01,1.945410777613995057e-01,2.399635501830521545e-02
8.854854957253321945e-02,1.944673388613670229e-01,9.036142448361354773e-02
8.930512556802536750e-01,8.625742595075232000e-01,7.176013785776340359e-02
8.570830611000133104e-01,2.738210329338633953e-01,-8.908154656065453425e-02
8.183352294213142031e-01,9.978135879478204906e-01,1.156004610871265220e-03
6.445710529820680712e-03,5.009221612420047265e-01,-5.792889644438779101e-04
1.139410861264642527e-01,6.616298255294900121e-01,-7.959077619531390591e-02
9.645641949014750471e-01,6.040676072000991104e-01,6.045022136873025309e-02
2.024578425707418416e-01,6.680746935115455809e-01,-7.002090235147467867e-02
1.061063360726417493e-01,9.357931049284680114e-01,-3.709601438628622877e-02
9.632806737651943285e-01,7.901022428116506457e-01,9.619868053667851582e-02
7.524474114340696795e-01,5.076154554775058614e-02,-2.234215672905389902e-02
7.660344254964467359e-01,5.456152191953866915e-01,2.097116917549728815e-02
6.990947564961756955e-01,3.745376569767366881e-02,-1.365126959973003186e-02
3.173811922230925786e-01,5.678550081084347001e-01,-2.244543429456466802e-02
9.584220137433060449e-01,6.157029756842946622e-02,-3.740661198772550489e-02
5.740511935957323120e-01,2.037421187716337290e-01,-2.208765329625085247e-02
7.536240069800369534e-01,1.910562314119889082e-01,-6.666260739940758906e-02
3.438614254205819565e-01,1.999748521232752596e-01,4.480082936350826550e-02
5.974638126994004095e-01,8.304525504706934402e-01,2.637307608181073751e-02
1.162523103385125767e-01,6.617121178723028851e-01,-7.939795161970762682e-02
9.802222209554748433e-01,5.562833431504854431e-01,3.456453276059489460e-02
5.354751068930996283e-02,1.719667342439135105e-02,1.063174563890993164e-02
1.234032484844187483e-01,9.769518940143364638e-01,-1.336002971511061205e-02
5.043602362580505982e-01,2.022390354721010919e-01,-1.308550395384119229e-03
5.505618116681814112e-01,8.265550134429094919e-01,1.402288199221311121e-02
2.033029476683689829e-02,7.072487938935618779e-01,-9.621738808965769885e-02
1.776901016397693933e-01,1.240922752909425775e-01,5.963333174997284547e-02
9.871356675435197792e-01,1.050541799505666507e-01,-6.126753132201811364e-02
5.737625941580368760e-01,3.483914844146225320e-01,-1.871565575353835789e-02
9.901990501875408413e-01,8.492570206315677162e-01,8.113673487735442724e-02
2.934763543202434377e-02,5.062012890414666622e-01,-3.878854238717653006e-03
4.015287884489091574e-01,1.099827007989506722e-01,1.940354843749024852e-02
4.494611048464537406e-01,7.821907534806225026e-01,-1.548833850956034090e-02
7.965282415214988143e-01,8.521946103003275041e-03,-4.295241603864566847e-03
9.721991330571342349e-01,1.833424285884136529e-01,-9.100865173122654750e-02
4.246900822979720047e-01,1.520362200831615329e-02,2.235676539513122354e-03
3.842870996362609537e-01,7.635702765561187544e-01,-3.542772971438611779e-02
8.454771989790826892e-01,5.202431845494437379e-01,1.121936558413540869e-02
5.870863484830832757e-01,6.872274561313801433e-01,2.494451092275634663e-02
5.738427729406921918e-01,7.637276406168662657e-01,2.290540547183025910e-02
9.516854234284920500e-01,7.614666036443834551e-01,9.859383769847435142e-02
4.859512288548484271e-01,1.015514059989952589e-02,2.813314496634452123e-04
6.076046377315673652e-01,2.440880324516945254e-01,-3.314192487724507835e-02
4.285145203834900274e-01,8.048832372122504131e-01,-2.095849456682112588e-02
2.738874949081526733e-02,7.372128665818618032e-01,-9.930865695109752922e-02
6.401978462400147452e-01,3.194224838401737987e-02,-8.499308078697458829e-03
5.215967551403066782e-01,6.781332715921997156e-01,6.100101991831457376e-03
1.116213303554924874e-01,1.151967515281721033e-01,6.219369336894670086e-02
3.136698046221032543e-01,1.283937153644465479e-01,3.989253750879744737e-02
7.804297186653271767e-01,1.123814074758764381e-01,-5.005295253860334026e-02
4.290403378728699924e-01,5.949651324647521333e-01,-1.242278628661502848e-02
8.118518477638813069e-01,4.653763867067415294e-01,-1.792154393695346085e-02
9.623283852402739758e-01,8.877497002002022741e-01,6.437196636952788320e-02
9.497185898738169652e-01,7.466424057489028376e-01,9.873299046164879522e-02
5.023597982730071410e-01,1.096807660331373668e-01,-4.714048347620359994e-04
5.469531670550398239e-02,8.836386203734093447e-01,-6.578709154490529343e-02
4.051049393159835699e-01,1.028419988442198507e-01,1.768628834633982627e-02
5.131777365973855254e-02,4.204688461691306056e-01,4.729563654679391077e-02
6.394585849101976915e-01,9.949165410625366857e-01,1.354804402020220100e-03
9.080881596841560155e-01,5.165595199611029420e-01,9.955921818081359120e-03
7.502973351716898387e-01,9.103944043117965235e-01,3.777584617600720368e-02
2.807067124756058574e-01,7.133983949936794078e-01,-6.189748143766082150e-02
2.202967056435777282e-01,7.010690813242997921e-01,-7.338178610981460626e-02
9.893985593966923009e-01,2.695317480463446103e-01,-9.919287485657583836e-02
6.113454112005316521e-01,8.266369081501458993e-01,3.037420489767692078e-02
3.366220712648712032e-01,7.692474086033728176e-01,-4.874394848654706180e-02
4.947181705950360886e-01,8.258774009713796271e-01,-1.474235813789133258e-03
4.298790411619097807e-01,3.727989830274530680e-01,1.566347612605947445e-02
5.621757661882944568e-01,1.579033680716366295e-01,-1.624923887825065194e-02
4.138868375607354100e-01,3.284857864662893423e-01,2.354024994008578966e-02
7.657219532924171013e-01,3.038860750583427528e-01,-6.990791447121368074e-02
8.314964947695483444e-01,3.209600129957538295e-01,-7.787485459171467062e-02
4.672286016313891288e-01,4.719900724374906931e-01,1.799388671039333547e-03
9.659014290644895029e-01,3.735203603370631509e-01,-7.095591588582970954e-02
1.426848712350667903e-01,9.429703035388889987e-01,-3.160602554014953214e-02
1.307371693237674437e-01,9.070918215465918477e-01,-5.053255467479442209e-02
9.772029838791286283e-01,5.914630668040798955e-02,-3.622011368158174760e-02
8.178947677342166545e-01,6.411835393528231286e-02,-3.296287952813793665e-02
9.132555205297160361e-01,6.668044151487582116e-01,8.344827614947482319e-02
3.433169668529610918e-01,2.622329200937425497e-01,4.712007821736752256e-02
7.758948161179131109e-01,6.340383477790644262e-01,5.687000151585596547e-02
4.839091544031570713e-01,2.872496851858008515e-01,4.915171682629284125e-03
1.492119869573551583e-01,6.176310206752915200e-01,-6.009561041111796675e-02
7.029173127590159220e-01,6.830682209148619677e-03,-2.553614724135835554e-03
4.460812742067147285e-01,4.189188682248075057e-01,8.221652574195199500e-03
6.314586535302213477e-02,3.021122613914588584e-01,9.283010869552743571e-02
1.485965016915513637e-02,8.670272473556168702e-01,-7.408189735203572768e-02
8.438357042303551436e-01,5.233030919276716597e-01,1.286864613910217170e-02
3.941384865184247577e-01,9.648416776065428246e-01,-7.153562656366427817e-03
7.909289027974444330e-01,8.197444295325098107e-01,7.171095009151422228e-02
3.611360327280001004e-01,3.527707818470156020e-01,3.374724580153734554e-02
5.387378540866271104e-01,9.413679578607447862e-02,-6.769043815411904426e-03
3.639208652129150012e-01,8.218000018818960584e-01,-3.731225047278888263e-02
5.006051849862123149e-01,9.617944693699264080e-01,4.520274101052831347e-05
7.956652513217354894e-02,6.740292517921649962e-01,-8.606158216911612147e-02
5.327892883355147546e-01,4.507723068479788653e-01,-3.130082547089813299e-03
4.985937868789106497e-01,1.579395649534642843e-02,4.376806695570517944e-05
8.242090862959552400e-01,9.751905106038534221e-01,1.321721893894196344e-02
9.023852809373418271e-01,1.256577444328262905e-01,-6.768972016217021659e-02
9.971366289753050838e-01,5.198028848376765598e-01,1.240993714719352582e-02
3.890262032801596881e-01,4.475338316708223907e-01,1.105862604118781380e-02
6.873558165377074980e-01,2.315149417004809251e-01,-5.514530670770453891e-02
9.239549948445060501e-01,2.798463148574976689e-01,-9.545639657023528846e-02
3.734137001731396843e-02,9.002508221381504416e-01,-5.824784091144289550e-02
4.442069780715982574e-01,9.550906948399596752e-01,-4.855582064265776508e-03
3.706073241355040127e-01,6.475531664864577763e-01,-3.162715035169346572e-02
6.631679764428424217e-01,8.755329243540204143e-01,3.456381095509086093e-02
2.599937948277327715e-01,1.571305558755559106e-01,5.712874152468410544e-02
8.384065391442071524e-01,2.383827609782107615e-02,-1.304017659237420579e-02
7.030976805873584423e-01,5.155245133332350127e-01,5.800771748062247268e-03
4.971830891381807671e-01,9.998618685667276518e-01,-7.680502598498140593e-07
8.556436810570499096e-01,3.111030207971290373e-01,-8.334769404217702571e-02
6.970896397424213298e-01,4.475100690533588832e-01,-1.879552089734297729e-02
6.453496521257064966e-01,7.188272716512049687e-01,4.324948115315906116e-02
1.611585668772662627e-01,7.417267661870946549e-01,-8.733661032570677607e-02
